ply
            format ascii 1.0
            element vertex 41445
            property float x
            property float y
            property float z
            property uchar blue
            property uchar green
            property uchar red
            end_header
18.854190 -160.275948 701.341867 212 193 178
24.809320 -97.247034 738.990974 192 175 166
-143.472517 -430.763197 609.776258 208 188 184
25.528258 -106.269813 733.333015 188 170 162
25.361720 -112.571108 729.536009 167 160 153
24.953188 -94.766736 741.315937 172 154 141
76.441693 18.722951 788.491201 220 200 188
20.287970 -156.771708 704.034042 220 198 183
25.128219 -92.667365 743.198776 176 154 145
60.810775 -31.732017 766.447163 201 184 173
10.555651 -186.523521 693.730021 209 187 171
72.291398 38.108104 808.152294 80 71 67
27.908808 -106.557751 737.551022 148 121 110
77.051187 14.258428 790.986300 217 193 180
27.702636 -88.839769 749.847269 194 169 155
27.997741 -88.986856 749.708700 194 169 155
3.993152 -198.618305 691.236353 118 87 78
73.754352 -1.027152 783.772707 199 178 168
73.754352 -1.027152 783.772707 199 178 168
29.467198 -116.084027 733.082581 105 79 66
6.406794 -194.875729 694.124651 105 84 78
29.239246 -105.067229 740.833426 198 175 158
6.718464 -194.755304 694.814730 92 72 61
5.685372 -197.080147 693.839741 88 69 70
9.422859 -191.303778 695.916843 198 179 172
32.287943 -126.288939 726.340342 195 174 159
31.537738 -133.134699 722.574759 206 182 170
23.677707 -159.103215 709.987545 157 126 111
31.241971 -124.131751 729.039907 216 197 185
31.041622 -119.783270 732.023287 64 43 31
28.854933 -89.917749 752.898455 36 24 20
29.436469 -95.773238 748.892736 123 92 77
29.224190 -107.079291 741.750288 99 70 56
29.224190 -107.079291 741.750288 99 70 56
27.667436 -149.137282 715.366983 181 155 145
30.197549 -113.542640 737.347555 108 77 64
30.844280 -135.353208 722.893429 110 74 59
159.389710 78.926873 796.223116 110 145 91
29.342103 -92.337036 752.719927 170 139 129
30.350080 -113.292384 738.844824 144 116 102
75.607085 -2.173986 787.931633 139 111 101
29.584730 -93.593943 752.543259 176 155 144
3.882585 -202.137351 695.443869 209 188 172
-26.925766 -60.933101 803.854084 51 34 23
173.605990 83.029479 793.216467 137 156 160
31.609389 -124.114597 732.636595 193 167 149
31.419438 -140.654647 722.726822 145 119 103
9.937864 -192.733955 700.909424 141 113 102
32.347116 -134.408486 727.279758 216 194 181
-16.799988 -38.022232 816.169071 111 87 72
77.189922 15.215936 801.602364 155 139 127
-14.249204 -33.672172 818.057823 13 8 10
-17.313053 -41.145962 814.810944 131 103 83
173.070908 81.660008 795.017338 13 32 21
-24.928209 -54.759616 810.627460 140 115 92
-24.928209 -54.759616 810.627460 140 115 92
74.513149 23.665817 809.554482 116 104 98
-17.106952 -37.661889 818.688488 42 24 18
31.252763 -110.621750 745.560980 122 90 70
-21.445546 -46.424046 815.478897 135 114 96
31.679916 -108.028960 747.501135 112 78 62
31.679916 -108.028960 747.501135 112 78 62
174.437129 81.568706 796.008348 112 146 88
-24.838787 -56.241214 811.902618 91 67 48
-24.838787 -56.241214 811.902618 91 67 48
76.625001 13.486314 803.960514 167 152 146
-23.588552 -52.257812 815.027237 135 110 94
32.647783 -116.893983 743.795061 190 159 145
77.053440 8.891510 802.574062 105 91 86
77.028900 13.281859 805.700016 80 65 62
391.726446 -130.515349 571.568346 209 189 177
33.108062 -123.794830 739.805555 95 67 56
30.202687 -152.063680 723.441029 185 160 146
75.670499 14.337620 808.378887 116 102 99
-17.288192 -40.686217 822.202206 34 22 17
26.698717 -164.700913 717.218781 175 152 148
34.909484 -130.584991 735.846663 91 67 56
32.687372 -110.486281 750.316858 129 95 75
21.498862 -176.836991 713.012743 201 175 159
33.561084 -122.019958 742.793274 124 95 84
74.735451 22.943078 817.503071 168 145 135
275.942183 117.555678 770.944452 15 34 17
-17.704988 -42.246011 825.317287 115 90 74
-14.470398 -40.169752 825.176716 105 88 75
-19.743846 -45.464376 824.972534 118 92 74
33.616346 -111.517155 752.427006 135 100 83
33.616346 -111.517155 752.427006 135 100 83
36.293229 -144.223297 729.514647 178 152 135
36.159438 -133.022571 737.324333 211 191 177
36.209765 -134.896636 736.710453 97 78 70
36.545157 -131.332326 739.270163 202 180 168
37.087566 -140.542817 733.364582 209 189 179
-19.830213 -47.453922 827.294636 89 59 42
2.961428 -24.229801 831.609249 107 85 74
-11.435803 -40.910169 829.272270 133 105 88
38.120896 -144.060373 733.684397 200 173 158
38.276535 -135.427129 739.400434 146 126 119
-18.971820 -48.096478 828.952122 157 128 110
228.096342 104.337132 793.380785 21 23 28
33.356401 -156.449306 728.736401 209 186 170
38.298950 -133.708990 741.640425 98 73 59
38.298950 -133.708990 741.640425 98 73 59
34.089741 -156.338537 729.820776 150 118 102
34.089741 -156.338537 729.820776 150 118 102
30.883387 -164.970958 726.285887 167 135 118
-14.777072 -43.541169 834.223366 162 137 108
36.645719 -153.384531 732.439232 193 166 147
2.360722 -25.012520 837.133312 85 55 36
226.637602 97.973090 793.413496 108 144 110
35.514200 -113.684225 759.783554 39 23 14
36.397815 -122.572935 753.519201 193 168 152
40.135884 -141.303146 739.215946 146 120 105
-10.549724 -39.881563 835.572147 172 141 116
39.033324 -149.706662 735.128641 178 154 143
1.475769 -29.743159 837.636566 92 59 43
36.910424 -118.345904 758.497858 211 184 171
36.425230 -117.556715 759.791756 69 44 35
0.629701 -32.654545 836.809826 190 161 136
-1213.924408 -431.093979 1259.734058 105 139 101
-858.182907 -290.389490 1152.457714 104 144 99
37.549773 -126.052821 754.376078 110 81 69
-2.305265 -391.037273 600.077152 200 181 180
40.226996 -139.319992 744.188690 127 99 85
34.455931 -160.887468 733.115530 179 152 131
34.455931 -160.887468 733.115530 179 152 131
-1057.131481 -367.622757 1216.337013 25 52 25
-1057.131481 -367.622757 1216.337013 25 52 25
1.478769 -31.274289 839.296150 90 57 47
39.924052 -136.854088 746.986055 205 183 172
-147.510231 -31.721923 925.193691 5 10 2
-895.775223 -305.595732 1169.314289 47 86 62
37.637147 -128.944921 755.295372 158 132 113
39.498717 -151.190233 739.377546 141 109 91
40.437913 -145.512438 743.330336 168 136 121
-200.168157 -47.146270 948.507690 149 169 141
126.527977 49.671066 825.756550 88 131 94
37.023976 -125.063133 760.155964 180 153 133
39.897007 -142.921627 747.133875 155 126 110
-804.140854 -275.885820 1144.695187 128 154 126
40.417677 -138.335419 750.223494 68 47 35
93.490732 -367.020726 568.325520 188 175 174
41.112417 -141.165209 748.294306 205 180 164
73.806274 28.299505 846.166992 3 10 6
-644.963694 -221.381474 1112.318516 87 118 89
-644.997454 -224.112701 1114.749527 16 46 20
-294.792891 -89.760000 996.887302 145 166 190
-470.403385 -154.839277 1058.306122 71 119 90
-445.076656 -145.423603 1050.749493 44 85 44
-739.697218 -265.405703 1146.356773 24 51 30
179.421246 69.626170 823.383427 23 24 27
-408.400917 -130.344141 1042.090511 21 64 31
-438.100863 -142.075241 1052.359390 3 9 10
-287.488556 -91.351897 999.351883 83 124 82
-913.897991 -339.147997 1222.244644 106 139 107
-529.472303 -187.548494 1092.018795 76 119 83
-434.716511 -149.004400 1060.254192 119 152 111
198.512578 73.084998 821.971607 13 12 11
-521.618462 -183.022225 1091.225529 11 41 15
112.347484 40.102839 852.923679 88 92 120
-191.593146 -62.294900 972.201538 54 82 42
105.636442 33.361670 855.979347 25 23 27
-425.608492 -148.684537 1066.907692 128 159 112
-420.252180 -147.628808 1067.811584 22 56 31
-643.262672 -241.833091 1144.683361 99 132 99
-710.468149 -275.209594 1170.974827 85 126 104
-427.050400 -157.143402 1074.088573 12 40 22
-427.050400 -157.143402 1074.088573 12 40 22
-504.919338 -188.522959 1105.139446 21 44 29
-708.115387 -276.787496 1174.950695 103 139 92
-708.115387 -276.787496 1174.950695 103 139 92
-685.347319 -269.534874 1171.495628 23 49 31
-541.256714 -209.453893 1119.985104 113 150 99
-346.485353 -129.040575 1050.377846 12 15 14
-468.498898 -180.332518 1094.283295 3 22 6
195.502591 64.982313 834.430981 96 94 100
-679.629326 -268.129373 1173.330212 91 127 84
-430.169392 -166.397524 1083.680344 44 83 27
-427.530622 -163.703287 1084.853649 119 154 100
-347.465920 -131.532049 1055.213737 11 24 11
220.240140 73.264599 830.921841 9 7 16
-451.903725 -184.673619 1111.940861 22 42 28
148.366702 -67.130768 790.619040 215 185 162
-454.442692 -190.615582 1117.830086 101 149 92
165.331364 -58.983660 789.295578 187 165 154
-447.817230 -195.414615 1128.182888 93 125 89
189.252520 -44.225723 789.449072 220 192 175
274.389434 87.583542 824.789333 27 48 50
190.732408 -44.393408 790.702677 127 92 80
190.732408 -44.393408 790.702677 127 92 80
192.483389 -42.804757 791.665411 211 181 162
251.511717 -286.785984 575.973606 156 145 144
251.511717 -286.785984 575.973606 156 145 144
202.440119 -38.324577 795.541143 213 185 167
190.316582 -49.928448 796.836662 202 176 160
208.314228 -30.592468 797.814274 132 97 84
201.856375 -40.753517 796.676636 211 187 171
210.390735 -30.247161 799.223900 153 124 110
202.163815 -41.847920 797.970438 79 47 38
190.840816 -51.979834 798.943043 205 184 171
190.840816 -51.979834 798.943043 205 184 171
206.800795 -36.459401 798.517656 165 139 128
208.762527 -34.138474 798.926067 219 196 178
199.323976 -45.043135 798.314095 215 189 169
212.374163 -30.254048 800.214863 172 143 126
186.281812 -57.588303 800.219631 164 138 129
194.964254 -48.926052 800.396347 225 196 175
299.745154 90.496182 828.300762 7 10 13
222.127271 -19.554551 806.128311 221 196 176
189.844775 -57.108361 803.184032 176 148 134
190.869915 -59.605014 805.621624 216 191 176
301.080632 88.022429 831.638336 3 12 6
230.251813 -14.960608 809.412670 202 177 157
366.963363 -58.310688 708.954716 182 152 137
254.964638 4.481760 805.902672 188 158 132
206.329155 -45.787418 807.220364 85 55 47
233.718801 -14.153288 810.135746 100 72 60
296.713352 31.167567 795.360851 176 150 133
273.436117 17.121817 802.981853 195 168 151
245.918059 -4.597193 808.395004 148 114 90
-72.173733 -75.109953 1004.492092 2 17 4
233.111668 -15.233417 811.279869 203 175 155
219.422483 -32.573599 809.552860 217 190 174
280.502367 22.243567 803.108978 175 146 131
195.356715 -58.858442 808.916187 219 196 180
263.864994 9.501665 807.005215 151 119 100
289.383769 27.257127 800.599575 198 172 157
298.267508 30.411339 796.174955 211 187 169
-73.947734 -78.721410 1006.841183 15 54 22
228.487706 -21.054938 812.577629 195 169 154
226.763177 -22.931536 812.675858 135 103 87
248.059511 -5.108494 809.709644 207 177 156
175.002527 -76.606309 813.365555 216 195 181
255.299616 0.902776 808.663845 182 155 134
255.299616 0.902776 808.663845 182 155 134
261.880374 6.864924 808.029556 112 86 78
297.965550 29.727763 797.334385 148 111 95
297.965550 29.727763 797.334385 148 111 95
-67.567772 -76.845700 1006.391144 72 114 75
282.241917 22.028509 804.322052 193 166 144
241.846728 -11.041216 811.369228 104 70 63
260.182929 4.772838 808.873653 124 104 98
255.520916 -0.220409 809.719658 115 87 77
309.641075 35.627604 794.124889 164 131 120
309.641075 35.627604 794.124889 164 131 120
222.594452 -30.768368 813.042831 213 191 176
308.255863 35.140306 795.160484 195 169 155
229.639745 -22.197807 814.374352 107 88 81
247.881889 -7.566223 811.298752 184 157 144
238.339639 -15.592554 813.340950 143 124 114
248.494077 -8.074504 812.012291 125 96 88
246.990418 -9.278735 812.279224 98 70 65
266.357827 8.153795 809.989643 65 50 50
298.792839 27.919337 799.146748 212 185 168
250.969410 -5.833367 811.784363 118 89 78
225.938749 -28.251016 814.889145 153 130 122
281.249809 19.541590 806.998348 50 31 29
253.109908 -4.412919 811.548138 182 156 146
231.022477 -21.959575 815.985107 69 50 45
229.216909 -24.343511 815.693283 188 167 161
308.429670 32.816017 795.672560 163 130 115
262.193727 3.635962 810.842133 126 101 91
-166.451490 -134.268570 1051.109123 141 127 111
305.914259 31.179106 797.293186 213 187 166
260.058022 0.302898 810.900497 180 154 140
252.938509 -5.805975 812.275219 115 85 74
302.080321 28.899261 799.162102 192 167 155
265.480256 5.587124 811.204338 94 64 63
255.514479 -4.031371 812.038803 184 157 144
278.108144 16.438983 809.686279 85 69 63
305.557942 30.484644 798.338509 126 95 82
225.990057 -31.005663 815.922737 90 66 63
259.682178 -1.648348 812.000561 187 161 152
227.096105 -30.170375 816.913700 77 57 49
185.069132 -73.135132 818.205929 220 198 183
224.294424 -34.714571 816.276741 205 181 173
231.811738 -24.738154 817.919254 85 67 66
228.541279 -28.979066 817.471790 65 50 48
318.391109 37.941751 795.733786 171 142 122
242.233968 -16.725449 815.823364 62 42 38
215.512061 -45.957291 815.568447 120 90 81
251.893139 -9.972170 813.840580 180 155 139
300.987339 26.999351 802.287674 179 152 131
224.166799 -36.032438 816.854095 141 112 102
304.484272 28.414482 800.705338 86 54 47
219.073987 -42.315686 816.293240 111 80 73
247.127080 -14.234129 815.172291 102 79 77
310.286713 30.947337 798.229456 92 61 54
298.977399 25.452682 803.658390 72 45 38
297.421241 24.566129 804.271412 118 86 78
233.153939 -25.005326 818.949032 56 40 40
274.830317 10.375752 812.066746 96 83 78
308.773470 30.080715 799.465227 89 64 62
221.495175 -40.106696 817.121696 193 171 163
293.681979 22.476275 806.095886 51 34 28
241.607976 -18.531837 817.336273 78 61 56
241.607976 -18.531837 817.336273 78 61 56
234.221816 -24.439453 818.935108 137 122 119
225.868678 -34.461170 818.132973 136 108 100
225.868678 -34.461170 818.132973 136 108 100
296.166301 23.636544 805.332851 177 147 127
220.019221 -41.921151 817.634487 190 168 156
218.338776 -44.347042 817.171478 115 85 75
235.024881 -22.983551 819.888020 68 51 50
312.558603 31.632531 798.461962 86 56 50
300.345445 25.622889 804.219532 82 55 49
245.892167 -16.816518 817.007160 162 140 129
223.985410 -38.427615 818.910408 185 163 153
257.933855 -7.435577 814.857388 206 185 174
228.059769 -33.450371 819.492149 100 74 68
239.947867 -21.839449 818.812466 79 59 52
312.641835 30.915505 799.462891 189 161 145
225.708628 -36.829031 819.088650 180 155 146
244.025993 -19.220871 817.820644 175 149 141
222.032809 -41.819957 818.872547 204 180 173
222.032809 -41.819957 818.872547 204 180 173
229.266667 -32.647911 820.156097 115 92 83
260.699248 -5.996551 814.737225 212 188 179
274.749017 7.954291 814.025497 179 161 148
318.605161 34.254372 798.246813 140 106 92
255.244303 -10.684493 816.092587 202 175 164
228.813481 -33.859038 820.137215 196 174 163
281.699944 13.305341 813.000774 46 33 30
296.602821 22.185948 807.569313 140 119 105
264.551640 -3.791919 814.420700 195 173 167
241.662621 -21.765786 819.690895 172 153 145
319.890094 34.590250 798.390484 213 183 166
277.933455 12.260809 816.019154 92 74 69
315.799022 31.470013 799.528027 124 91 76
313.446474 29.968002 800.594234 112 77 61
313.446474 29.968002 800.594234 112 77 61
219.367957 -46.107963 820.249557 196 172 162
208.207226 -57.618129 820.839310 142 115 103
226.982450 -37.625879 821.175766 161 137 132
213.744926 -51.731759 821.650600 100 71 61
213.744926 -51.731759 821.650600 100 71 61
276.931715 -314.410543 570.016909 188 175 174
225.879431 -38.939616 821.528339 174 147 136
224.471617 -40.718469 821.348953 100 73 63
274.147248 5.121788 815.425014 205 182 165
304.524660 25.241530 805.656528 83 58 52
324.561167 38.542333 799.447393 211 183 163
196.556985 -69.932139 822.721958 208 184 163
196.556985 -69.932139 822.721958 208 184 163
234.365487 -29.130897 822.662258 166 145 139
269.899678 0.938448 816.221428 150 122 110
312.419057 28.637013 802.139759 171 139 126
228.911877 -36.015072 821.995735 169 144 136
243.603444 -22.270194 820.508862 87 65 60
232.669711 -32.529306 822.089672 82 57 50
275.535560 -316.500688 569.374895 188 175 174
231.440020 -33.988869 822.357464 85 62 56
274.260902 4.217297 816.112518 123 89 76
274.260902 4.217297 816.112518 123 89 76
235.679030 -28.834358 822.918797 61 41 41
299.514675 22.070897 808.759022 53 39 37
299.540329 22.062354 808.747005 53 39 37
213.381529 -52.972716 823.122215 90 60 49
306.802893 25.767189 805.749989 82 56 51
266.062975 -5.456598 815.784454 203 187 174
263.386750 -7.503948 816.542912 182 157 146
305.308199 24.961384 806.730461 131 105 88
225.279284 -41.412669 822.531509 169 145 137
310.492325 26.845548 804.295349 87 60 53
185.853374 -80.260432 826.087379 140 104 88
231.557441 -34.952435 822.835064 183 160 150
312.422109 27.378488 803.349876 172 141 125
299.917126 21.582554 809.460258 115 95 92
212.009859 -55.946523 823.425484 193 168 150
318.330479 31.041792 801.430416 137 106 92
318.330479 31.041792 801.430416 137 106 92
259.718800 -11.568677 817.888069 130 101 96
324.722004 36.613706 800.575829 114 82 72
255.338955 -15.171853 818.878841 169 141 133
222.847867 -45.576286 822.889614 190 164 150
251.305580 -18.081598 820.261478 93 70 62
213.606358 -53.958982 824.409866 161 137 125
318.139243 30.203396 801.729393 194 167 149
222.274232 -46.510142 823.536301 100 71 65
239.822888 -27.827942 823.327160 77 57 55
249.160600 -20.709026 820.965290 168 144 136
261.719537 -10.731638 818.211365 208 187 173
294.428802 18.651390 813.446617 106 86 85
224.759793 -44.487521 823.332787 202 176 163
268.957710 -4.678363 816.935825 164 141 133
209.978604 -58.003092 825.531960 168 140 130
243.095016 -25.715303 823.076725 205 179 166
247.547412 -22.275348 822.174931 180 156 146
264.462686 -9.497371 817.803860 145 115 101
220.320559 -49.482524 824.435902 107 76 68
260.022378 -13.195564 819.511509 175 148 135
260.022378 -13.195564 819.511509 175 148 135
266.622400 -8.454688 817.686176 128 94 82
266.622400 -8.454688 817.686176 128 94 82
252.601838 -19.445045 821.370125 110 81 74
246.475673 -24.375914 822.807312 182 159 147
262.040472 -12.283956 819.001865 191 169 158
293.659472 17.051254 814.980030 172 152 142
293.659472 17.051254 814.980030 172 152 142
212.214756 -56.970817 826.773167 172 149 133
258.228469 -15.208752 820.284367 179 155 144
264.430809 -10.454852 818.718433 199 174 158
270.944667 -4.399521 817.961884 147 116 109
233.078361 -36.604124 825.423813 107 86 85
268.567848 -7.754403 817.675114 120 89 77
322.178221 32.167527 803.150368 179 148 133
329.741240 37.691921 801.050568 122 87 75
298.980808 19.445050 813.067341 142 118 107
221.330500 -50.257736 825.160408 195 176 164
198.816597 -70.030880 828.989315 176 148 134
245.141101 -26.394773 823.756599 81 57 49
245.141101 -26.394773 823.756599 81 57 49
234.745765 -34.942350 826.569366 84 59 53
278.406620 3.348178 819.199753 117 97 94
249.635816 -23.113728 823.235416 160 133 123
224.904132 -46.266985 826.396656 189 163 148
211.629295 -58.490878 828.352356 65 49 42
303.669953 21.253100 811.888504 61 41 40
239.739037 -31.139764 825.727940 151 124 114
299.939418 19.349563 813.649654 92 68 63
263.258576 -12.778440 820.317078 117 86 75
328.472066 35.757750 802.636242 198 172 156
261.032319 -15.052450 820.894718 203 175 161
190.905869 -79.671502 830.678177 212 187 176
309.023952 23.387574 809.807491 150 121 112
266.882420 -10.661412 819.554996 188 163 150
315.821815 25.887933 806.521225 106 85 77
228.716946 -43.513238 827.498722 75 55 49
193.770051 -77.435237 831.081963 161 129 107
195.701253 -76.310706 830.343723 190 170 152
273.015952 -4.694344 819.824886 155 131 113
221.245289 -52.393216 827.249336 166 139 129
324.929070 32.602504 804.502678 152 121 107
263.187194 -14.135005 821.161079 193 167 157
329.193878 35.557604 803.247356 94 63 56
272.376275 -6.689655 819.197559 154 129 122
335.025930 38.796166 800.970745 114 78 77
299.894047 18.228374 815.296268 77 55 52
264.618397 -13.307726 821.183109 205 177 163
222.365570 -51.154327 828.356075 85 64 60
299.120140 17.558002 816.129303 125 106 101
336.200547 39.055884 800.998020 199 168 153
305.952334 21.277781 813.197899 72 51 50
301.268649 19.016081 815.639019 68 49 43
259.540200 -17.609343 823.090267 135 102 95
258.903098 -18.384326 823.160267 178 150 139
311.240554 23.220792 810.487080 81 57 52
262.081957 -16.168822 822.209263 185 159 143
241.404581 -32.526359 827.409744 105 76 68
201.383090 -70.031726 832.754993 93 68 62
256.693578 -20.708971 823.572540 124 92 81
230.845714 -42.945194 829.077435 86 62 58
239.706206 -34.093815 828.424072 164 142 136
268.893671 -11.729773 820.633698 195 172 157
192.921221 -80.524486 832.820320 192 163 146
308.442354 21.500924 812.781239 84 60 52
234.611940 -39.696151 828.901196 185 159 153
337.728763 38.828442 801.113701 216 189 172
331.464744 35.576227 804.016304 170 138 128
276.072383 -3.834483 821.456718 166 136 123
302.030110 17.980224 816.168404 161 139 135
223.900509 -50.777018 830.197144 86 67 61
260.108352 -18.874612 823.739624 200 174 159
238.611078 -35.847169 829.341793 70 50 47
265.830684 -14.629260 822.312355 153 125 115
265.830684 -14.629260 822.312355 153 125 115
230.110621 -44.692072 829.887867 91 71 66
264.054251 -16.196205 822.922230 141 109 90
336.612749 37.789798 802.261543 186 155 145
208.210635 -65.686595 832.845592 79 61 53
247.129059 -29.572076 827.344322 107 73 63
303.329301 17.973353 816.068745 80 61 57
209.618545 -65.051216 832.608128 155 136 129
221.287298 -55.054641 830.277061 162 141 131
319.890666 26.980993 808.758450 157 131 120
269.398451 -12.547438 821.927071 102 71 61
263.092399 -17.325619 823.779106 203 178 160
220.262122 -56.523871 830.380440 149 123 113
265.938497 -15.719874 822.582150 202 178 162
265.938497 -15.719874 822.582150 202 178 162
219.164968 -57.617134 830.813980 82 62 54
211.678433 -63.741499 832.590199 74 55 48
229.536080 -46.172738 830.797291 160 137 126
227.604437 -48.441702 830.843925 80 61 54
235.047960 -40.858725 830.351639 153 137 124
259.410334 -20.900616 824.738693 206 180 168
305.728507 18.927656 815.690231 151 129 123
328.477836 32.165226 806.396580 153 127 118
233.277893 -43.312356 830.348682 184 160 145
310.873103 21.446846 813.433552 110 89 87
256.017256 -23.954770 825.829983 209 187 171
327.767611 31.410605 806.621170 67 45 43
327.767611 31.410605 806.621170 67 45 43
240.549874 -35.279104 830.564976 68 46 40
322.252440 27.923307 808.812714 161 132 119
295.257688 13.582245 821.363926 103 85 82
202.442074 -71.552926 835.758877 122 91 78
316.077662 23.784040 811.236000 134 111 103
270.155120 -12.779412 822.728252 203 177 163
210.659838 -65.781921 833.253098 101 78 72
231.643176 -44.960356 831.275940 145 122 114
249.832416 -28.499159 828.478622 178 150 133
262.287354 -19.587424 824.641037 160 127 110
262.287354 -19.587424 824.641037 160 127 110
309.486413 19.889596 815.035248 71 51 46
339.775658 37.743917 802.886009 196 169 149
339.775658 37.743917 802.886009 196 169 149
229.803205 -47.505620 832.428455 155 134 126
237.371945 -40.139115 831.626701 183 159 147
306.168580 18.260151 817.144966 166 146 138
315.250421 22.736052 812.948132 146 124 118
267.467141 -16.404106 824.156952 113 83 73
223.077536 -55.092287 832.824898 77 57 49
260.314131 -22.360945 826.158714 197 174 156
199.767375 -75.413752 837.906456 106 83 76
330.051470 31.757265 807.690048 164 135 125
305.145478 17.523025 818.489265 83 59 55
276.919746 -8.464146 822.985363 174 151 141
228.256655 -50.158596 833.337498 87 66 58
201.221013 -74.655163 837.961864 162 135 125
246.638918 -32.993525 830.801487 96 68 57
281.795454 -1.211684 824.832535 160 135 124
311.381483 20.333369 815.757465 83 63 60
239.841962 -39.020514 832.347107 178 151 141
273.761749 -11.999878 823.690033 139 100 80
251.077127 -28.576300 830.708408 152 126 115
265.223360 -21.079835 824.171734 186 159 139
243.754983 -35.366741 832.016563 86 57 51
221.720695 -57.495981 834.139538 84 63 59
276.624656 -9.749436 823.414040 215 197 185
321.220183 25.038952 811.627960 156 129 120
321.220183 25.038952 811.627960 156 129 120
251.968694 -28.280485 830.939674 182 158 142
251.968694 -28.280485 830.939674 182 158 142
278.310990 -7.456409 824.025917 132 107 98
305.511713 16.744830 819.091225 182 156 139
250.655031 -29.739970 831.180573 78 54 48
250.655031 -29.739970 831.180573 78 54 48
344.034982 41.285497 804.552364 138 109 93
265.630174 -19.670074 825.897789 200 174 161
314.771771 21.421677 814.935398 55 37 37
263.370562 -21.407630 826.792145 147 115 99
192.937183 -82.703495 840.894413 110 86 78
239.541101 -40.422633 833.046150 162 136 123
204.944468 -73.515457 838.001442 181 153 142
216.762161 -63.547206 835.516834 165 139 123
216.762161 -63.547206 835.516834 165 139 123
224.017096 -56.088227 835.024643 81 60 52
243.938637 -36.375216 832.912827 140 119 108
307.537675 17.379093 819.199657 163 138 130
307.537675 17.379093 819.199657 163 138 130
228.706503 -51.637465 834.836292 82 60 54
196.647084 -79.851854 841.319180 95 65 60
225.658846 -54.791284 835.305309 146 123 113
282.808566 -0.208090 827.796936 106 92 91
249.430490 -31.903154 832.553577 80 58 52
342.576981 37.859631 804.904747 127 98 94
253.457141 -28.411114 832.154560 185 162 151
242.565966 -38.445398 834.273720 147 124 117
259.602022 -23.953982 830.548859 181 153 134
343.800569 38.609236 805.307484 225 208 199
199.296010 -78.406423 841.842747 119 96 88
232.427692 -49.500015 835.623074 165 143 135
281.142998 -5.285513 827.125931 158 129 120
227.928329 -54.105020 836.204243 90 69 61
201.920438 -77.327341 841.120243 141 115 105
256.215549 -27.053687 832.548714 165 136 122
256.215549 -27.053687 832.548714 165 136 122
242.851925 -39.179730 835.011482 76 54 49
226.930952 -55.083919 836.715889 152 126 112
304.400659 14.810979 822.768497 141 122 115
305.693126 15.887825 822.506428 155 131 118
248.342443 -33.957165 834.367466 89 69 62
233.359623 -48.827296 836.283302 83 61 54
246.838903 -35.724548 834.780693 84 61 56
215.456867 -67.767823 837.519646 118 91 82
301.825547 13.135594 824.398994 54 35 33
273.941875 -15.780234 826.652527 69 44 38
314.956427 19.288625 818.133068 178 150 141
309.797573 16.883136 820.952606 174 149 134
264.890099 -21.575868 830.832005 144 121 110
344.438148 37.378129 806.261444 203 172 157
316.100883 19.954354 818.013859 58 36 37
232.576251 -50.699925 837.153149 158 137 129
276.324415 -14.360014 826.653004 188 165 155
207.329845 -75.104338 840.626717 206 180 169
207.329845 -75.104338 840.626717 206 180 169
215.956855 -67.747903 838.902664 98 70 63
275.408864 -15.204905 827.138996 103 74 60
328.855062 25.382724 811.500645 188 164 156
231.123328 -52.890235 837.471485 141 118 107
238.690042 -44.638011 837.429047 154 135 124
308.693838 15.916209 822.525978 81 60 55
218.286347 -66.387618 838.845158 115 88 77
324.018550 23.293124 814.755726 198 173 157
307.490134 15.275446 823.361111 64 43 40
243.117237 -41.250384 837.071133 145 122 114
214.400077 -70.528263 839.871979 187 162 146
303.053451 12.456066 825.712299 67 47 40
304.097748 12.859109 825.120640 144 125 118
317.108250 19.430903 818.853664 192 164 149
259.252357 -27.054578 834.225082 56 34 32
202.919936 -79.740214 843.440247 199 178 163
208.547902 -75.642729 841.936493 134 105 91
255.999041 -29.781634 835.709190 152 129 117
217.542052 -68.247020 840.299129 132 103 95
201.825786 -80.919307 844.637012 191 162 142
201.825786 -80.919307 844.637012 191 162 142
330.726457 25.130153 812.106228 90 61 57
248.488688 -36.842710 837.761879 72 51 46
208.195925 -76.737863 842.603874 178 152 138
307.030678 13.888888 825.118637 160 135 124
218.762112 -67.630059 840.580750 197 168 161
218.762112 -67.630059 840.580750 197 168 161
251.470470 -34.617901 837.367535 118 99 93
251.470470 -34.617901 837.367535 118 99 93
221.502352 -65.398079 840.205574 114 84 68
313.257265 16.854039 822.335911 81 53 46
213.089204 -72.622728 842.273617 94 63 57
304.434991 12.000034 826.827908 56 40 33
269.498563 -22.128695 831.377888 184 159 146
225.218034 -62.042367 840.429974 161 143 137
315.350962 17.427456 821.913242 102 74 64
217.232585 -69.624794 841.974735 197 173 160
217.232585 -69.624794 841.974735 197 173 160
310.160518 14.558737 824.527550 168 142 133
231.235242 -56.072664 840.546799 63 43 38
313.672423 16.263533 823.238754 166 140 126
342.663646 30.411637 807.991314 182 158 140
272.332716 -19.729158 832.430553 202 179 162
234.805584 -52.599728 840.573597 61 42 39
323.021293 20.335224 818.260956 202 178 160
334.326601 24.939722 811.621857 224 202 187
214.939427 -72.068375 843.516254 199 172 162
227.438450 -61.510414 840.776539 187 164 152
230.326271 -58.213747 841.023731 143 123 114
324.373817 20.316608 818.171787 204 182 164
313.807797 15.719680 824.496746 65 43 38
220.730853 -68.439353 842.966270 179 154 144
300.176930 7.503466 831.364250 130 108 103
212.919784 -75.298595 845.727158 191 165 150
267.192316 -28.314653 833.789825 194 170 155
199.547637 -85.552132 850.614738 138 103 87
323.403907 19.146252 820.395756 190 168 156
329.283571 21.210322 816.689491 197 173 163
233.996606 -57.797569 841.507435 197 171 160
326.403213 20.249796 818.995571 98 69 59
224.709368 -66.095138 843.858814 112 82 73
334.011745 23.065297 814.242554 203 183 165
312.364483 13.684119 827.042389 62 42 41
281.355762 -16.082647 832.230091 161 137 121
234.019279 -58.777761 842.388058 90 69 61
332.820940 22.015235 815.815926 112 80 66
272.613645 -25.024751 833.961296 130 97 73
306.940699 10.747257 830.979824 103 83 77
203.429055 -84.477925 850.776768 90 62 54
215.281796 -75.504208 847.217178 166 140 127
262.542081 -34.136376 836.548233 202 176 160
238.509798 -55.362463 841.864777 98 70 64
209.527206 -80.559129 848.626900 154 129 117
223.452997 -68.600440 845.323563 105 78 64
324.654126 18.832006 821.664619 84 58 50
201.196742 -86.541420 851.996231 200 172 158
306.848788 9.947096 831.387234 104 82 76
306.848788 9.947096 831.387234 104 82 76
242.592001 -52.152443 841.448593 95 67 58
302.667785 6.998409 833.118820 143 124 116
317.734599 15.424570 826.139259 129 100 89
302.177596 6.063896 833.595657 55 38 34
310.523701 11.755762 830.420017 154 135 128
310.523701 11.755762 830.420017 154 135 128
231.869435 -62.376940 844.307995 113 84 69
324.415088 18.245006 822.846603 195 169 152
226.104307 -67.167735 846.079636 116 88 81
220.353413 -72.239327 847.563648 180 152 139
323.330355 17.503187 824.271297 114 85 71
248.883390 -48.181126 841.121674 180 152 143
263.457084 -35.851005 837.696934 111 84 75
259.045863 -39.453882 839.003086 142 113 98
235.671473 -60.450482 844.103146 193 170 155
210.520792 -81.526315 851.133919 101 76 63
253.513169 -44.830596 840.445137 131 102 80
236.984468 -59.640211 844.053364 100 74 65
281.238794 -17.956710 836.160278 176 158 151
270.856142 -29.552758 836.885929 107 78 69
281.223559 -19.334020 835.424995 147 119 110
281.223559 -19.334020 835.424995 147 119 110
281.223559 -19.334020 835.424995 147 119 110
241.083097 -56.261694 843.405247 199 178 167
247.223449 -50.653923 842.316055 72 52 45
258.504748 -40.778267 839.682484 195 170 159
263.347077 -36.609572 838.682079 181 154 145
331.521583 19.563730 820.164680 139 108 95
329.323316 18.825383 821.821594 121 90 75
329.323316 18.825383 821.821594 121 90 75
220.695662 -74.487746 849.453163 116 89 80
212.074280 -81.452841 852.019215 171 141 128
275.380158 -25.632891 837.331200 116 87 78
247.600532 -51.551735 842.642212 184 161 150
242.031765 -57.158363 844.023991 140 111 102
275.189328 -26.781484 837.555504 178 156 144
227.177548 -69.849223 848.536873 200 176 166
247.045970 -53.454459 843.065071 183 166 161
241.113496 -58.214992 844.892216 196 177 168
210.639429 -83.882320 853.184223 111 78 62
313.888645 11.762006 832.818317 166 143 131
336.049223 20.756997 819.020939 124 94 78
235.862327 -62.411970 846.747112 190 162 148
309.019685 8.466578 834.865379 98 81 75
219.931841 -75.830805 851.134396 92 64 55
219.931841 -75.830805 851.134396 92 64 55
262.303734 -39.209923 840.797520 86 65 57
230.808353 -67.091471 848.187256 189 170 162
266.033125 -35.564274 840.474319 90 68 56
338.046265 21.349666 818.391991 130 101 86
208.647728 -85.541552 855.064392 122 90 76
263.347697 -38.565773 841.383362 163 141 129
337.585282 20.657207 818.988895 199 172 157
319.139767 13.524862 830.933571 106 86 79
277.327633 -25.663328 838.897800 129 101 93
315.997505 12.267099 832.934856 102 78 70
315.114760 11.722820 833.511925 178 156 143
318.123507 12.331916 831.110287 175 157 145
320.601583 13.975736 830.429363 172 152 134
313.295531 10.545173 834.693146 127 106 99
311.429191 9.013690 835.292149 96 80 74
208.849025 -86.516970 855.838203 195 164 146
217.214060 -79.557461 853.705883 108 76 66
254.995656 -48.036039 843.644238 105 76 66
328.035259 16.524330 826.443100 175 152 135
246.656799 -55.780834 845.591831 201 174 158
221.029615 -77.042031 853.095341 180 153 140
326.888132 16.136128 827.591705 80 54 45
326.888132 16.136128 827.591705 80 54 45
256.714344 -47.354785 843.073845 181 159 150
313.307095 9.764832 835.740566 71 54 51
276.335287 -28.375110 840.357590 89 64 52
284.363914 -15.827522 843.220806 173 148 135
351.617074 27.323398 813.644314 168 150 137
310.105586 7.037792 837.301922 122 103 98
261.803913 -41.881001 843.947792 86 63 56
270.715356 -33.651653 842.084694 161 137 125
238.185978 -63.361448 849.182987 185 161 145
268.598723 -35.136753 842.973804 97 73 62
234.807158 -66.256398 850.531197 112 88 82
234.807158 -66.256398 850.531197 112 88 82
326.892686 15.559314 828.700924 198 173 155
275.639296 -29.267561 841.695309 157 131 119
302.072549 0.355775 840.688419 58 38 35
251.735592 -53.561169 845.280457 136 109 97
263.060331 -41.721597 844.111443 149 126 115
302.417541 0.115318 840.395832 58 38 35
233.305502 -68.296856 851.249886 108 85 77
240.542388 -61.857796 849.540710 192 168 156
216.547394 -82.669348 855.780602 183 155 143
264.087582 -41.320798 843.931866 90 66 60
337.191796 18.793695 822.462273 198 175 158
303.977346 0.972231 840.415859 144 129 123
303.977346 0.972231 840.415859 144 129 123
275.844860 -29.896629 842.364407 96 72 61
285.216427 -15.935874 844.825840 58 43 37
285.216427 -15.935874 844.825840 58 43 37
264.860725 -40.826860 844.482327 164 137 127
323.080325 13.451736 832.881451 168 142 127
215.270305 -84.960973 856.896782 110 79 62
284.694600 -17.267209 845.005608 152 127 121
284.694600 -17.267209 845.005608 152 127 121
316.588378 10.116217 836.634350 73 53 48
310.246325 5.803504 839.367390 70 52 48
284.519672 -18.608388 844.223690 90 65 59
217.305446 -83.010858 856.743240 106 75 67
301.522899 -1.606024 841.942596 67 48 41
152.269328 -92.897385 912.797737 174 146 135
208.570361 -90.118426 859.932232 208 182 164
304.029942 0.106872 841.178322 64 45 40
256.529975 -50.398010 845.866871 132 105 94
256.529975 -50.398010 845.866871 132 105 94
259.756565 -47.091854 845.470333 84 67 64
340.750122 19.770765 821.693230 126 97 77
258.042812 -49.850073 845.087051 191 170 160
305.814695 1.686079 841.044521 131 113 106
241.900349 -62.748665 850.333977 203 180 169
283.927250 -21.534139 843.716431 85 58 48
276.283288 -30.198583 844.108391 166 135 121
284.446216 -20.024312 844.762230 75 54 44
261.064577 -46.710071 845.847225 74 55 51
288.572311 -14.380112 845.891476 138 120 114
291.946125 -11.000237 845.631504 122 108 101
291.946125 -11.000237 845.631504 122 108 101
262.759376 -45.613864 845.695019 85 64 53
217.537904 -84.415162 858.084774 189 160 148
277.228260 -29.669869 844.783783 98 69 55
241.149640 -64.549488 851.882935 197 175 163
260.168242 -48.839670 846.398735 151 129 116
306.315875 1.072606 842.411327 44 31 26
282.813764 -24.597651 844.324303 148 129 119
311.903596 5.271214 840.502453 155 132 126
291.781592 -12.267011 845.864105 49 35 32
284.727097 -21.819721 845.177650 200 172 158
283.944511 -23.120910 844.921589 198 172 156
285.955644 -19.464640 846.106720 100 80 73
288.269734 -15.400973 847.241497 50 33 31
310.915041 4.213428 841.402149 52 34 32
317.665124 9.278082 839.179611 66 48 44
267.032981 -43.257219 845.582962 138 110 105
252.607512 -55.636942 849.679279 201 177 166
280.882001 -27.569684 845.408535 111 83 73
320.048547 10.048895 838.021183 78 58 50
236.934471 -69.431847 854.275513 184 158 147
236.934471 -69.431847 854.275513 184 158 147
277.398634 -31.491148 845.794582 178 151 142
318.557954 9.401694 839.216423 58 39 31
264.205647 -46.661940 846.685028 148 117 108
281.036186 -27.610087 846.033955 121 93 84
321.560693 10.778810 837.875843 167 142 126
231.270194 -74.573797 856.561184 172 144 134
252.716303 -56.725818 850.256920 116 85 80
241.473699 -66.104978 853.628635 180 151 141
283.441758 -25.755525 845.825672 168 142 125
221.803975 -82.750720 859.685135 82 60 55
327.457857 12.789963 834.504795 117 84 77
265.629840 -46.454993 846.797848 201 179 170
259.924603 -50.976217 848.749924 182 156 143
332.692790 14.521968 831.395721 162 138 126
274.106979 -37.010339 846.876812 162 138 126
231.031132 -75.355005 857.937145 101 72 64
247.950363 -61.279839 852.938652 109 83 70
273.453617 -38.620883 846.970940 167 140 130
255.003119 -55.758482 851.144409 194 169 156
321.313691 9.725801 839.707088 70 52 45
339.554119 17.149842 827.680874 199 180 163
339.554119 17.149842 827.680874 199 180 163
217.656493 -88.072824 861.770630 192 160 140
267.896128 -45.385751 847.179508 204 180 167
270.019078 -43.476397 847.016335 181 160 148
316.810894 7.207985 842.743206 56 38 38
267.158794 -46.029076 847.969246 100 70 59
340.473986 17.497912 828.011799 202 183 168
346.872711 19.881856 823.911190 203 180 162
248.193431 -62.545460 853.889847 188 165 158
227.633429 -79.657710 860.357571 167 140 130
274.054384 -39.417267 847.422314 113 86 79
268.145990 -45.986760 847.898579 98 68 59
315.757751 5.568347 843.452549 122 101 93
282.362700 -29.275683 847.756100 130 97 79
272.850108 -41.828310 847.407436 114 89 82
324.660397 11.023585 840.082455 133 117 100
287.376046 -22.059576 850.040054 127 110 99
287.376046 -22.059576 850.040054 127 110 99
252.124190 -60.172945 853.768539 169 143 133
225.128150 -82.793432 862.288475 177 149 131
275.701118 -39.294612 847.773743 185 159 150
318.019295 6.367992 843.778133 79 59 53
313.780189 3.172958 845.434570 54 37 34
253.247905 -59.467977 854.030132 112 85 81
253.247905 -59.467977 854.030132 112 85 81
265.178800 -49.657139 850.318432 195 169 156
278.103018 -36.837366 848.054409 152 126 115
268.513393 -47.200829 849.201870 162 136 120
245.093727 -66.513014 856.735897 111 81 73
336.695290 14.463580 832.448483 197 179 164
347.347975 19.299595 826.015759 187 167 148
288.849878 -20.103991 852.178288 129 114 111
235.219240 -75.578517 860.357094 109 81 70
256.403852 -57.803518 853.808117 203 185 172
283.634019 -29.865319 849.724674 172 148 139
283.634019 -29.865319 849.724674 172 148 139
250.519991 -62.762469 855.746078 178 156 144
254.403329 -59.619081 854.517937 181 153 147
245.505500 -67.158687 857.512283 194 160 148
316.227555 4.039323 845.860863 100 80 76
310.584474 -0.860840 847.514248 69 48 46
246.899962 -66.192842 857.178020 138 104 90
243.690825 -69.214463 857.999229 187 161 142
228.990674 -81.208897 863.075733 117 87 76
336.585569 13.747808 833.868408 146 123 106
269.946146 -46.843085 850.583553 107 77 72
273.168135 -44.278485 849.582100 179 153 141
273.168135 -44.278485 849.582100 179 153 141
267.833352 -48.575506 851.411438 115 90 81
267.833352 -48.575506 851.411438 115 90 81
283.219099 -31.876674 849.832726 182 154 148
242.518568 -70.544326 858.770084 114 83 73
265.345216 -51.103079 852.154160 196 170 158
311.913729 -0.000352 847.991467 56 39 32
310.503769 -1.630331 848.099422 155 135 123
303.532887 -7.511017 850.276661 108 87 82
282.982898 -32.847306 849.896812 180 160 150
221.121097 -90.013641 864.888287 207 178 162
309.796190 -2.425791 848.342800 78 54 49
265.970635 -51.339555 851.703739 196 170 158
324.681282 9.291863 843.224716 41 31 31
311.622047 -0.923989 848.031902 156 135 132
324.887896 9.185902 843.072701 41 31 31
231.105852 -80.299580 863.621616 115 90 83
231.105852 -80.299580 863.621616 115 90 83
276.122475 -41.884032 850.006771 176 151 145
250.871038 -64.315653 857.197762 190 163 149
267.141724 -50.379699 852.356434 106 75 68
267.141724 -50.379699 852.356434 106 75 68
308.725643 -3.851447 849.475861 165 137 128
308.725643 -3.851447 849.475861 165 137 128
242.612147 -71.318692 860.172176 101 73 69
259.339237 -57.282734 854.979134 182 156 141
262.978554 -54.412192 854.050350 136 104 91
280.769825 -38.246393 849.854469 122 94 86
280.769825 -38.246393 849.854469 122 94 86
224.400735 -88.148993 865.527916 193 161 139
319.518781 4.932445 846.846008 76 57 56
247.465229 -68.116444 858.953285 211 186 171
279.831672 -38.719532 850.657177 115 91 85
315.871811 1.849784 848.462582 57 40 38
287.947106 -28.116825 851.649666 130 101 89
252.678943 -63.786113 857.808685 189 165 143
252.678943 -63.786113 857.808685 189 165 143
318.123293 3.460898 847.633839 150 129 124
318.123293 3.460898 847.633839 150 129 124
271.231794 -48.488483 852.389526 100 71 62
237.473583 -77.177256 863.145924 164 133 119
256.302786 -61.007529 857.545948 107 79 71
273.928356 -46.171713 852.303123 113 80 71
314.024043 -0.682567 849.607944 52 41 37
319.817519 4.171678 847.818851 146 131 125
255.561185 -62.478352 858.088112 177 155 143
255.561185 -62.478352 858.088112 177 155 143
264.874530 -54.539573 855.364227 174 146 132
267.852879 -52.270901 854.603767 194 166 158
257.570410 -61.517292 857.991695 193 169 157
250.088382 -67.948574 860.442066 99 72 63
320.346689 3.547825 848.581886 59 43 38
316.294575 0.270689 850.125313 58 46 42
262.780809 -56.887317 856.965351 169 142 127
274.360204 -47.043481 853.496552 174 147 130
291.019511 -25.388211 854.794216 83 64 61
278.490472 -43.167162 852.659988 174 148 136
287.763739 -31.398797 853.092861 105 76 69
248.312378 -69.414598 861.870766 127 95 84
237.204623 -78.502285 865.706539 159 129 117
228.387737 -87.617087 867.135525 203 176 159
243.444490 -74.217439 862.987518 187 161 149
266.827464 -54.222810 855.853844 119 89 77
312.786603 -3.595967 851.308250 183 165 148
298.043871 -16.984251 855.511570 145 125 118
276.173282 -46.080405 853.631687 128 98 91
278.024507 -44.191065 853.516197 103 73 66
302.010942 -13.433288 854.899311 142 116 110
290.567040 -28.172693 854.713535 167 141 134
279.994488 -42.694226 853.468227 172 149 141
234.504914 -82.182819 867.427444 164 135 121
234.504914 -82.182819 867.427444 164 135 121
233.185172 -83.186251 868.040466 110 82 68
314.757586 -2.661942 851.677990 158 138 129
309.647512 -7.238208 853.130627 73 52 50
259.416914 -61.031044 859.685898 170 143 130
316.244054 -1.271812 851.542950 189 165 154
316.244054 -1.271812 851.542950 189 165 154
282.483983 -39.149156 854.475498 155 130 120
312.486053 -4.914979 852.707767 69 47 46
282.386994 -40.337569 854.005241 104 82 76
299.405193 -17.254008 856.093979 138 117 108
321.443868 3.067621 850.497532 78 71 61
273.321843 -49.849486 855.719662 191 165 152
287.733340 -33.756241 854.397297 187 165 154
272.234058 -50.767332 856.140232 106 74 63
241.764879 -76.493376 866.137695 132 103 89
292.386746 -26.472160 855.877495 75 55 53
280.157781 -43.248504 854.664230 116 82 77
233.894038 -83.994550 868.586636 189 157 142
238.414431 -79.286987 867.964458 107 76 67
238.414431 -79.286987 867.964458 107 76 67
279.435229 -44.370422 854.721928 177 149 136
251.598692 -68.675590 863.255215 135 106 99
246.936107 -72.847700 864.605999 109 79 69
248.106551 -71.628445 864.583874 195 172 161
230.588222 -88.130951 868.938065 147 118 105
287.317514 -35.236856 854.690647 201 175 165
324.637389 4.712583 850.260830 104 91 89
320.882297 1.082106 851.796818 170 150 142
299.313855 -19.209115 857.144451 180 154 138
267.838430 -56.044203 859.131432 102 73 64
345.661902 15.019464 838.185596 97 67 63
285.120821 -38.802409 855.942631 107 84 74
306.381202 -12.144938 856.426811 144 125 120
254.593349 -67.589432 863.699722 85 61 56
249.706769 -71.667922 865.489483 146 116 107
344.986176 14.245547 838.601303 237 216 202
311.733389 -7.627790 855.072212 137 112 103
300.839591 -19.012441 857.034874 94 70 65
265.503120 -59.413648 859.898567 105 73 65
309.874272 -9.969628 855.560398 121 100 95
243.801808 -77.026224 868.511486 87 63 56
314.510345 -6.251897 854.498577 81 60 54
335.749817 8.513539 844.895458 153 129 119
335.749817 8.513539 844.895458 153 129 119
294.267130 -28.038225 857.385921 93 70 68
346.031046 14.424932 839.097309 230 212 200
318.363190 -2.347339 854.069042 178 162 147
265.965986 -58.169597 861.667156 170 143 127
311.800456 -8.496051 855.977631 88 66 61
264.190245 -60.442454 861.850834 118 86 76
347.399116 15.297316 838.787079 130 114 98
281.598520 -44.970393 856.814289 198 173 166
306.483364 -14.093997 857.216644 155 132 126
261.008573 -63.216305 863.193512 87 61 53
313.531518 -7.520814 855.650806 171 149 139
246.149850 -75.899881 868.580151 87 63 50
291.065431 -33.766264 857.192516 159 131 116
289.796805 -35.052857 857.491398 87 62 59
308.677745 -12.208941 857.279110 70 48 46
294.445395 -29.238546 857.721710 155 130 125
252.884865 -70.450640 866.679573 105 76 72
292.123365 -32.308176 857.812119 170 144 132
319.324899 -2.855464 854.505157 82 60 56
275.782585 -51.344758 859.076595 84 63 51
277.122664 -50.759977 858.356190 193 170 160
287.427187 -38.553098 858.134270 153 127 116
280.131483 -47.975689 858.122730 191 167 157
280.131483 -47.975689 858.122730 191 167 157
249.546361 -74.303383 868.622971 89 63 56
281.367540 -47.364941 858.003139 113 83 70
281.367540 -47.364941 858.003139 113 83 70
291.078210 -34.549779 858.745289 82 60 55
303.300595 -19.383490 858.812332 135 110 106
296.004677 -28.778842 858.832932 166 143 134
253.588009 -70.992047 867.782116 170 142 131
318.309116 -4.878360 855.884266 170 152 144
284.372115 -44.149595 858.400440 103 81 76
323.860335 0.215373 854.550838 85 65 58
248.502469 -75.389612 870.348263 154 128 111
330.407119 4.782590 851.986980 113 89 82
329.373550 4.117407 852.850723 193 171 150
280.338383 -48.768541 860.337257 199 172 163
320.473909 -3.763087 856.313705 145 122 118
286.198187 -43.185326 859.477329 139 116 109
244.562936 -79.751700 872.933960 88 64 58
342.099571 10.550264 846.152306 190 168 149
239.519310 -85.302150 873.822117 178 147 136
275.914478 -52.944970 862.689304 169 139 121
267.597532 -60.931265 864.953899 158 128 113
290.430927 -38.308290 860.043812 171 142 134
325.755882 0.322703 855.682564 182 158 150
308.911467 -16.082980 859.673405 127 105 99
315.090728 -10.058624 858.434105 152 127 121
304.627156 -21.112148 860.171127 161 133 122
340.701866 8.745389 847.113037 179 158 140
303.676748 -22.661242 860.201263 165 134 127
250.588632 -75.053304 872.503185 85 62 54
256.418371 -70.582068 870.103741 96 72 61
256.418371 -70.582068 870.103741 96 72 61
321.309018 -4.690612 857.370663 63 48 48
334.782791 5.753556 851.892471 182 157 139
312.194467 -13.959761 859.687710 148 123 115
339.773846 8.257440 849.155331 111 86 75
319.204736 -7.089313 858.352661 77 56 54
303.191257 -23.764367 861.310863 115 87 80
310.572672 -15.215917 860.799026 108 81 74
310.572672 -15.215917 860.799026 108 81 74
292.214036 -38.033032 860.864830 159 133 120
309.218979 -17.775311 860.289192 153 127 120
251.090407 -75.898206 872.980118 143 116 108
326.448250 -0.818041 856.530094 60 43 45
321.825647 -4.904812 858.350372 62 47 45
298.408699 -30.578452 861.795521 179 151 139
316.580296 -10.721706 859.445572 156 135 130
315.248442 -11.999483 860.190582 129 104 99
290.467930 -40.837815 862.180424 143 118 114
309.632587 -18.371746 860.965443 114 85 78
252.569509 -75.628012 873.717785 97 71 65
279.912448 -52.617049 864.041138 101 69 58
322.046900 -6.008798 858.857346 135 114 113
287.299681 -46.073112 862.063789 186 162 151
