ply
            format ascii 1.0
            element vertex 71378
            property float x
            property float y
            property float z
            property uchar blue
            property uchar green
            property uchar red
            end_header
57.758760 -56.514084 549.011230 37 44 43
52.201825 -107.456386 539.765453 77 75 74
54.595727 -91.967839 542.264891 178 179 177
126.804125 170.145142 567.061234 39 104 94
55.492842 -89.298844 542.712831 173 181 184
52.711099 -105.054545 540.430593 62 66 67
58.245176 -58.905870 548.818970 104 111 108
54.032040 -95.135039 542.387581 172 175 173
53.618580 -39.243922 556.280708 32 37 42
53.344071 -101.513565 541.509914 80 80 79
52.958757 -107.137883 540.425920 138 141 141
52.958757 -107.137883 540.425920 138 141 141
52.958757 -107.137883 540.425920 138 141 141
54.300547 -92.875111 543.213129 96 97 97
53.312588 -40.674278 556.475353 31 35 40
52.910048 -36.901578 557.636690 89 97 98
53.871715 -98.276794 542.280293 195 197 195
53.871715 -98.276794 542.280293 195 197 195
53.871715 -98.276794 542.280293 195 197 195
54.044521 -98.263103 542.237282 195 197 195
54.044521 -98.263103 542.237282 195 197 195
54.044521 -98.263103 542.237282 195 197 195
59.406775 -64.890611 547.507811 212 215 212
59.857404 166.557956 603.279972 6 61 37
52.397662 -43.483499 556.582499 61 65 64
55.380148 -52.820373 552.949286 27 33 31
55.380148 -52.820373 552.949286 27 33 31
54.401314 -52.063197 553.680658 17 21 22
55.795455 -89.433259 543.901777 41 43 47
54.820442 -91.692567 543.889475 179 178 174
55.800527 -90.504956 543.839312 194 193 191
56.235588 -84.681863 545.049858 167 171 172
59.638321 165.684116 603.961372 139 228 193
54.257053 -99.896723 542.506409 60 60 59
52.095085 -34.690884 559.950686 107 112 113
54.029912 -100.921488 542.728949 143 145 143
59.434772 -65.793449 548.431635 198 202 202
-543.610382 205.416465 939.206314 6 51 53
58.401448 -58.605498 550.790977 177 180 181
58.345616 -57.415068 551.261568 58 64 63
53.746611 -104.538107 542.230225 195 198 198
56.840497 -81.247211 546.337080 42 47 48
53.500032 -40.664610 558.127594 80 86 89
58.613729 -61.832184 550.204325 74 79 80
53.559285 -102.858829 542.878389 133 138 141
54.633421 -51.340556 555.151081 78 84 86
53.447217 -107.219100 542.168427 159 164 164
53.447217 -107.219100 542.168427 159 164 164
53.780776 -36.707991 559.320688 27 29 29
58.154106 -69.490176 549.170732 218 220 215
53.219247 -38.577387 559.483385 115 121 120
56.572455 -80.451065 547.511578 40 48 48
52.019477 -75.082511 551.457739 146 169 176
53.926140 -93.625134 545.869350 49 50 48
54.139918 -94.520867 545.597506 84 87 85
53.535056 -100.948632 544.473600 194 195 191
53.535056 -100.948632 544.473600 194 195 191
58.877987 -65.628195 550.406504 43 48 51
53.319180 -43.994123 558.916569 52 57 58
58.267522 -59.159023 552.520466 67 73 74
59.169161 -65.357810 550.525427 33 39 42
54.180205 -91.643572 546.834469 44 43 47
148.625565 172.857916 560.201406 82 167 161
54.484999 -95.320851 545.925617 53 56 54
55.091083 -51.974726 556.332111 27 35 34
58.822823 -62.185329 551.955652 30 34 35
57.088500 -70.523155 550.999260 210 216 215
55.211550 -85.658777 548.360348 21 23 23
54.277420 -101.395619 545.013142 177 180 179
54.277420 -101.395619 545.013142 177 180 179
55.205929 -87.580901 547.917652 25 26 26
54.028881 -108.207059 543.627310 174 180 178
54.641724 -105.126262 544.081545 63 66 66
55.334747 -89.680243 548.020840 118 119 116
52.561057 -35.319102 562.988043 115 121 120
54.190058 -110.868096 543.562174 191 197 192
54.940659 -96.418238 546.757841 143 148 147
54.308754 -42.875454 560.407925 22 25 26
59.241188 -64.950418 552.370358 176 182 183
59.241188 -64.950418 552.370358 176 182 183
55.295426 -97.550374 546.500969 60 65 66
59.433717 -63.733906 552.712727 37 41 42
54.969138 -104.742730 545.111752 162 167 167
55.983055 -73.139614 552.478218 196 201 199
54.396081 -85.208619 550.514174 64 72 71
59.285527 -64.554065 553.237295 168 172 173
56.003463 -94.170457 547.733879 68 71 70
58.716422 -68.904495 552.601147 229 230 228
55.387092 -103.199756 546.160316 199 203 200
55.387092 -103.199756 546.160316 199 203 200
56.809878 -72.284925 553.223610 125 130 137
55.872178 -95.247042 548.155546 190 194 192
59.159267 -67.276210 553.414679 198 200 201
54.227382 -115.457916 544.451189 77 76 72
55.107039 -111.241698 545.397472 148 160 154
58.098423 -57.270420 557.287169 34 39 39
58.277684 -57.302856 557.238913 34 39 39
54.514581 -85.595924 552.387094 23 29 27
55.449247 -98.602498 548.659945 112 118 117
59.022206 -62.956440 555.562735 38 42 42
54.522628 -45.700368 562.702131 91 93 93
54.522628 -45.700368 562.702131 91 93 93
55.987352 -104.511344 547.211552 178 182 178
58.012354 -70.658380 554.588938 137 143 142
52.878910 -80.539894 555.094051 13 18 17
56.484002 -102.013254 547.824144 46 50 51
56.484002 -102.013254 547.824144 46 50 51
51.851249 -79.604673 556.040668 53 58 56
55.567604 -111.588228 546.052980 58 68 68
52.649391 -78.181231 556.075525 11 16 15
56.885910 -94.389385 549.990988 26 28 28
56.885910 -94.389385 549.990988 26 28 28
55.841434 -87.422562 552.395058 91 99 99
55.972904 -99.961799 549.210596 41 44 43
59.221768 -63.042146 556.721210 50 56 55
56.095785 -108.726001 547.081852 163 170 165
56.145543 -112.861490 546.146297 79 85 84
69.731998 167.219460 608.505344 82 177 143
56.676114 -106.812000 547.693014 61 66 65
56.763917 -96.777773 550.571537 176 182 181
56.190610 -98.076969 550.560188 24 30 29
131.622994 169.892645 575.731850 69 182 174
55.348259 -87.052929 554.398060 23 32 29
57.403815 -96.064311 550.962400 183 188 186
57.041305 -91.491693 552.348661 43 51 51
58.463848 -73.432654 556.386089 206 204 202
57.097554 -102.146578 550.038433 56 58 56
56.316304 -116.718495 546.855211 183 179 173
59.819299 -64.841568 558.080292 98 108 106
59.819299 -64.841568 558.080292 98 108 106
57.748139 -55.782479 561.550188 133 138 136
57.073522 -106.701934 549.074364 155 159 160
57.338017 -57.087350 561.492205 53 57 55
60.080630 -69.052547 557.381439 59 61 61
56.782293 -112.599468 548.229837 165 168 166
60.061061 -70.083272 557.311249 200 201 200
64.313817 163.944435 613.849592 144 225 194
57.148033 -99.969530 551.719809 156 159 157
57.148033 -99.969530 551.719809 156 159 157
58.126485 -97.006953 551.958132 133 138 137
56.423932 -87.230700 555.466127 85 92 89
56.362236 -113.390470 548.879957 42 43 40
90.296340 168.174779 601.219940 1 24 35
90.296340 168.174779 601.219940 1 24 35
59.712642 -72.304505 558.064079 159 164 164
57.981712 -55.802882 563.260317 169 177 177
57.392782 -102.011585 551.913404 135 137 137
57.392782 -102.011585 551.913404 135 137 137
58.370554 -94.653958 553.683376 30 34 34
58.211964 -109.061706 550.162363 185 185 177
57.707602 -101.144600 552.498722 144 148 146
56.757605 -47.115454 566.776896 138 143 143
58.602995 -94.702482 553.627014 30 34 34
58.150297 -107.936323 550.726032 134 135 135
57.842183 -105.265498 551.714706 153 158 155
56.772864 -88.743502 556.543922 63 70 67
59.852070 -73.561865 558.802891 200 203 201
58.004278 -103.876436 552.222729 42 42 44
59.860218 -72.502875 559.202623 65 66 70
58.561212 -96.158373 553.996134 179 180 178
57.719070 -101.469934 553.234911 80 80 79
57.719070 -101.469934 553.234911 80 80 79
58.383209 -99.864000 553.450966 164 165 159
59.052360 -61.893278 562.754774 31 30 29
60.423374 -66.366827 561.012793 176 178 173
58.433270 -108.548152 551.408291 38 39 37
60.551327 -64.641452 561.516333 38 42 41
57.604587 -76.940590 560.136795 197 199 199
57.921040 -116.123104 550.023127 158 159 156
58.745855 -98.581201 554.270029 199 199 193
58.344603 -107.586038 552.211237 27 28 27
55.782431 -85.129392 559.491348 23 29 28
60.267425 -70.448804 560.770750 202 205 203
58.982635 -96.091157 554.958820 17 17 17
58.982635 -96.091157 554.958820 17 17 17
58.707184 -97.638494 554.850626 170 171 169
57.717729 -47.526383 568.413782 24 29 27
58.147597 -92.861086 556.673145 56 59 59
59.219712 -58.804858 564.767838 101 104 102
57.888830 -48.496792 568.392897 143 149 146
58.594418 -99.713236 555.118465 158 160 157
58.836669 -112.653387 551.672125 106 105 101
58.539575 -106.417143 553.503466 113 115 114
58.539575 -106.417143 553.503466 113 115 114
58.661008 -96.791339 556.013870 121 124 124
58.051175 -49.785215 568.435860 44 50 48
58.295220 -94.275653 557.051468 41 43 43
58.952528 -100.472975 555.193758 98 98 95
58.389175 -49.299800 568.817091 70 77 74
58.684009 -101.744008 555.238056 193 190 186
59.101129 -109.142637 553.094244 157 160 156
59.101129 -109.142637 553.094244 157 160 156
58.349437 -103.375769 555.286074 46 45 45
60.001743 -67.494166 563.624430 165 169 168
59.316128 -64.831090 564.823055 127 134 136
60.065186 -68.861961 563.489246 59 60 61
59.173054 -101.005638 555.798483 203 202 199
59.074169 -115.884030 552.042389 163 166 164
58.494723 -94.876748 557.841730 164 167 165
59.666818 -112.263846 552.771711 181 179 171
58.587974 -95.772111 557.727337 57 59 57
59.386992 -113.462269 552.690077 103 100 94
59.271717 -109.818590 553.799295 56 62 57
59.911156 -66.765898 564.727592 49 54 52
58.700389 -96.694213 557.735825 177 178 178
58.155268 -63.213795 566.825247 14 12 12
58.621681 -73.704630 563.914442 129 128 128
58.482409 -97.626460 557.844973 64 64 64
18.236409 159.519184 647.263098 92 182 159
52.370465 -80.195683 566.355991 165 173 173
58.989459 -60.897672 567.558050 203 204 200
57.746428 -91.849059 560.358906 26 31 30
56.977880 -90.598124 561.186647 27 32 31
56.977880 -90.598124 561.186647 27 32 31
57.015431 -75.721776 565.128756 140 140 140
60.263115 -68.571889 565.135813 52 56 57
60.228956 -69.562966 565.032005 220 219 215
59.715861 -66.221547 566.316032 72 77 75
58.296239 -99.942982 558.567858 42 40 40
56.603378 -105.362105 558.458185 65 68 69
59.584624 -71.557587 565.562725 137 137 137
57.782340 -98.845464 559.943295 69 67 65
57.782340 -98.845464 559.943295 69 67 65
58.240944 -62.239939 569.329882 188 189 188
57.838845 -64.651734 569.042349 14 14 13
197.851348 174.145663 548.438978 122 208 179
57.125449 -92.602760 562.321520 35 39 37
59.259140 -52.944911 571.427298 110 115 115
58.207315 -54.445881 571.830034 56 59 57
60.227054 -58.718133 569.822216 162 166 167
56.357169 -89.612705 564.127970 86 91 89
60.472465 -69.191951 567.318106 25 27 25
58.714235 -97.701883 560.916901 78 79 77
59.920210 -72.401178 566.885376 117 117 117
58.244234 -99.021512 560.950089 195 194 190
60.397512 -58.608294 570.291567 169 172 172
59.114814 -48.800611 573.752975 15 17 17
59.959495 -60.052389 570.498037 183 186 188
58.299941 -75.143600 567.658949 156 154 153
57.548004 -63.229024 571.455479 162 164 168
60.021049 -52.715486 572.894144 200 203 203
58.537406 -62.777215 571.766233 171 176 178
58.384299 -55.759543 573.769093 32 31 27
58.898592 -57.432997 573.176050 7 5 4
55.616039 -90.351743 566.924524 141 147 142
56.424367 -66.504896 572.996521 15 15 15
60.276812 -60.140753 572.548723 197 198 198
56.572640 -93.357748 566.504002 53 57 52
56.805217 -65.815270 573.874998 153 154 153
59.023315 -64.036584 574.474430 193 196 196
59.227669 -50.354320 578.437042 26 31 30
59.737325 -62.450659 576.527119 197 197 197
59.971738 -62.084121 578.098154 30 28 26
58.755374 -61.542755 581.026697 200 201 199
58.328050 -63.686800 581.318855 189 190 188
81.224144 167.224610 631.233406 4 62 46
82.501733 167.288113 631.611872 1 60 48
341.736388 1.332751 445.468664 90 97 100
146.932685 174.367845 594.586468 4 74 49
96.519226 169.165516 625.283146 7 59 49
133.029425 170.690477 603.966618 123 209 201
77.971232 167.253625 645.549536 130 225 209
80.630076 167.398643 644.668770 139 214 188
140.293849 172.278500 607.824421 96 209 177
77.457392 167.492986 649.218750 91 216 185
28.230086 164.438879 683.382607 28 111 87
121.520150 173.046935 625.316191 15 101 99
142.242336 173.788321 612.079430 145 239 222
108.095634 171.073174 635.301208 2 82 54
189.142084 177.057850 587.735844 71 186 156
173.832798 178.516626 614.204359 90 207 188
165.241325 177.808988 622.489548 121 210 188
308.759379 17.704247 489.083481 28 127 100
-1836.122131 -623.531103 -865.780354 227 212 198
-1856.683540 -606.627560 -875.690937 170 143 121
-1848.538399 -597.295809 -867.620945 210 187 165
-1742.489052 -764.059114 -794.601345 84 79 70
-1734.790611 -771.410179 -785.828447 211 214 206
-1856.895638 -761.003351 -849.454117 84 96 88
-1748.367691 -715.197563 -782.547998 176 179 167
-61.766243 198.096156 172.870910 50 144 110
-1824.212837 -613.715744 -816.238785 209 210 192
-113.887370 194.517100 144.902420 142 209 185
-1830.960083 -621.732092 -818.814754 38 33 26
-352.916265 204.755926 16.771327 114 216 181
-1816.645432 -617.340803 -802.087688 54 57 54
-1788.452911 -762.129307 -789.565420 225 213 202
-1801.695633 -595.541716 -792.209768 84 75 64
-113.103461 198.895478 149.057400 93 185 155
-1834.497261 -636.397314 -809.241676 165 167 155
-60.972303 197.237206 177.757466 158 227 206
-1742.321968 -728.921938 -754.006529 222 218 213
-1742.321968 -728.921938 -754.006529 222 218 213
-1728.008652 -707.581806 -745.034647 131 124 106
-1630.517578 -645.098162 -688.843536 45 52 48
-974.853134 228.007054 -308.964205 46 96 102
-1657.426643 -613.245535 -699.408913 89 86 77
-1687.648773 248.852944 -687.435436 127 215 185
-1782.383919 -614.837360 -757.958174 69 84 74
-1797.331047 -615.399647 -762.393188 62 78 66
-1752.325821 -712.098074 -724.186611 204 202 191
-1749.061203 -629.165649 -713.993740 224 220 211
-1677.791595 -663.564062 -677.973318 92 100 93
-1699.575615 -655.945587 -681.110573 196 195 185
-1529.020119 214.479089 -560.755920 31 45 37
-1529.020119 214.479089 -560.755920 31 45 37
543.276930 -155.525136 491.642809 123 202 181
-1704.714584 -623.017740 -670.727110 131 123 117
-1527.899647 213.049960 -546.355534 192 224 224
-1541.101170 210.431290 -550.884485 210 247 241
-1275.139141 225.264859 -413.572788 47 100 109
-1734.983444 -644.112062 -670.864868 83 79 71
35.327664 187.258029 249.075723 18 127 103
-1700.467110 -661.979914 -645.883656 82 97 80
-1743.421555 -661.406040 -666.620016 81 90 74
-1761.598969 -643.184376 -674.089956 76 84 72
75.324833 188.372064 271.155238 170 235 215
-1694.062614 -665.662813 -638.042498 203 206 189
-1693.424988 -657.260370 -637.124872 190 196 183
-1700.317383 -656.990242 -635.091591 71 80 61
-39.691341 190.319479 217.638302 15 99 62
-1679.272079 -664.900255 -617.692900 154 152 138
-2115.409088 207.651162 -772.245359 14 86 65
90.093839 185.987318 286.782360 9 109 73
-2126.332474 211.586571 -760.234213 87 173 156
94.406557 186.334908 290.449047 27 155 111
-2101.463127 214.122891 -744.895935 4 55 40
-2118.300629 208.335781 -748.222256 3 61 43
-2118.300629 208.335781 -748.222256 3 61 43
-2133.086586 216.439676 -744.714975 19 54 52
-1288.074684 204.863977 -343.236923 65 145 123
-1273.750591 -533.303976 -359.104037 243 230 213
-690.304947 199.758017 -55.748421 123 231 206
-1242.624664 -605.640364 -336.160994 86 85 83
-1237.282562 -624.317646 -332.321072 105 110 115
99.931812 186.438453 304.584694 100 176 148
-1264.248371 -426.463223 -332.795906 33 42 45
-1251.214504 -492.698908 -329.798555 28 33 34
-1251.269913 -487.537813 -329.425406 37 42 44
-1246.503258 -511.989164 -328.078127 97 100 104
-1246.503258 -511.989164 -328.078127 97 100 104
-1289.498043 -177.050984 -329.710269 57 65 78
-1240.370750 -627.726078 -330.769682 45 48 52
-1274.045181 -274.205327 -327.282643 27 36 39
-1293.305111 204.310942 -310.363340 35 105 100
-1265.104580 -414.927578 -329.502273 108 113 119
-1273.438740 -320.859838 -327.716351 57 63 68
-1271.499062 -320.610380 -326.739621 57 63 68
-1246.586514 -560.382414 -328.073955 30 26 31
-1263.606930 -401.228476 -327.160478 42 48 55
-1287.378025 -166.503429 -325.061727 130 139 149
-1271.509266 -305.540013 -325.291133 31 37 42
-1255.967236 -423.883581 -324.480677 122 128 133
-1301.918507 -33.609349 -323.046303 132 141 147
-1250.782967 -512.011099 -325.310469 31 31 35
-1284.699821 -149.933398 -321.115518 31 36 44
-1240.647697 -591.735458 -324.605227 87 88 92
-1247.357655 -487.902546 -321.964550 110 115 120
-1235.053349 -635.779238 -324.247694 39 37 42
-1257.480907 -394.029832 -321.021485 111 117 123
-1269.314671 -273.303056 -319.614482 30 36 41
-1281.100178 -194.432878 -320.517254 135 146 150
-1275.584507 -254.099417 -320.992279 141 149 157
-1268.319321 -281.395936 -318.887997 39 47 55
-1284.179688 -154.903269 -319.198322 29 32 41
-1284.179688 -154.903269 -319.198322 29 32 41
-1269.654369 -308.626556 -320.460629 133 138 146
-1260.521889 -385.038209 -320.465231 150 153 160
-1251.771736 -496.517515 -322.333407 102 107 110
-49.245411 184.032345 241.154385 117 207 171
-1276.014233 -217.271399 -318.148828 56 65 70
-1276.014233 -217.271399 -318.148828 56 65 70
-1244.764328 -552.356720 -322.011280 109 114 116
-1237.049866 -608.116293 -321.522045 123 126 130
-1293.698406 -51.438594 -316.702127 80 90 100
-1277.540779 -210.736823 -317.863631 21 27 33
-1277.540779 -210.736823 -317.863631 21 27 33
-1242.035484 -584.198952 -321.961975 38 38 44
-1242.473698 -588.468552 -322.342777 46 45 52
-1240.645790 -617.249727 -322.893977 45 44 51
-1264.407730 -358.484244 -319.624305 120 129 132
-1289.934540 -160.253561 -319.799805 117 124 132
-1272.744942 -246.410441 -316.711187 139 146 155
-1275.456429 -230.835795 -316.628742 129 138 142
-1263.342571 -353.477120 -317.812920 147 156 160
-1255.166054 -477.881336 -320.628500 65 67 77
-1249.008846 -546.336460 -321.502233 37 36 40
-1230.057430 -634.626102 -317.155790 110 110 116
-1237.919331 -610.376120 -319.170094 42 42 48
-1266.531372 -290.434289 -314.606786 148 157 167
-1254.394913 -430.500555 -316.189671 65 73 83
-1254.394913 -430.500555 -316.189671 65 73 83
-1269.653511 -269.709945 -314.007139 53 61 68
-1284.576893 -163.357866 -314.800477 52 59 68
-1284.747982 -140.385783 -313.536310 152 162 171
-1277.775383 -178.786314 -312.408376 150 157 165
-1261.971951 -372.379208 -314.994431 130 137 140
-1270.600510 -249.859023 -312.091446 77 84 92
-1241.409588 -504.956484 -312.883091 108 113 116
-1244.359303 -533.431292 -315.394449 131 138 144
-1234.833241 -633.259773 -316.327381 43 42 46
-1279.710674 -153.481221 -310.117483 135 143 153
-1253.880787 -411.387110 -312.297893 128 133 141
-1232.564354 -596.287584 -312.947059 36 34 38
-1232.564354 -596.287584 -312.947059 36 34 38
-1241.544533 -577.255106 -315.448785 35 37 45
-1282.278728 -169.055676 -311.148787 130 136 142
-1264.991379 -350.713348 -313.187933 145 154 163
-1248.558998 -419.682789 -309.731531 70 76 81
-1253.612804 -406.891060 -311.194563 133 139 145
-1263.153648 -289.852166 -309.035492 143 152 163
-1247.474766 -511.085749 -314.002633 112 117 120
-1265.902805 -341.760349 -312.690473 135 140 148
-1267.246056 -305.059886 -311.168790 151 158 166
-1244.382095 -565.564489 -314.982700 55 61 70
-1275.645638 -223.615360 -310.020161 130 143 157
-1259.486580 -273.426080 -305.121589 34 40 48
-1252.223015 -423.709154 -309.314823 143 151 159
-1276.415539 -196.812391 -307.443810 143 151 166
-1273.647881 -191.065371 -305.771279 80 82 93
-1273.647881 -191.065371 -305.771279 80 82 93
-1245.540333 -485.277081 -309.336925 119 126 135
-1245.540333 -485.277081 -309.336925 119 126 135
-1245.332432 -540.774202 -312.167001 27 28 32
-1240.548515 -596.506023 -312.570524 113 116 124
-1262.218952 -374.801707 -309.871125 56 65 78
-1245.921803 -550.111580 -312.211347 45 52 57
-1245.921803 -550.111580 -312.211347 45 52 57
-1270.376682 -272.573447 -307.777023 25 33 38
-1240.970898 -523.327446 -308.509660 49 52 61
-1275.955677 -255.364132 -308.475018 91 97 104
-1249.923515 -493.104887 -309.868217 110 116 123
-1266.759777 -297.089076 -306.395793 142 151 161
-1247.397327 -506.747246 -309.430528 31 34 39
-1269.716835 -250.791216 -304.968596 161 169 176
-1269.823933 -217.631912 -303.119230 17 22 28
-1269.823933 -217.631912 -303.119230 17 22 28
-1237.873268 -576.477242 -308.236051 118 123 128
-1293.549919 26.613429 -299.320507 100 111 119
-1295.172024 89.229840 -296.448159 71 84 96
-1244.649410 -566.886759 -310.192466 95 100 106
-1244.649410 -566.886759 -310.192466 95 100 106
-1271.648884 -259.724474 -304.827046 145 151 156
-1271.648884 -259.724474 -304.827046 145 151 156
-1249.509811 -455.730677 -305.840182 75 78 85
-1285.924530 -3.516062 -296.660757 67 74 84
-1258.157063 -425.331116 -307.519245 86 90 95
-1237.150192 -602.402020 -307.839084 128 130 139
-1237.150192 -602.402020 -307.839084 128 130 139
-1297.066021 85.369605 -295.619392 138 148 158
-1281.282902 -140.354872 -301.260233 147 155 162
-1254.854965 -432.732964 -305.874610 121 127 133
-1270.581627 -226.513433 -300.960588 56 66 76
-1274.045086 -235.809922 -302.498221 137 146 156
-1252.357674 -416.423130 -303.061271 142 148 155
-1259.796619 -369.452286 -303.417087 72 77 83
-1253.541756 -467.725420 -305.945015 153 159 166
-1242.146397 -625.091600 -309.320545 123 124 129
-1291.132832 48.136964 -293.105268 135 146 154
-1291.132832 48.136964 -293.105268 135 146 154
-1265.716267 -272.014594 -299.889159 139 145 156
-1293.995190 124.701142 -289.638829 149 159 169
-1270.220947 -288.538909 -302.109361 67 70 83
-1270.220947 -288.538909 -302.109361 67 70 83
-1234.696484 -645.699930 -305.640054 131 134 139
-1276.139736 -189.426720 -298.128772 131 135 145
-1244.457150 -539.937735 -303.510404 41 46 52
-1279.879379 -151.409674 -297.062469 184 188 193
-1248.763466 -512.827730 -303.257608 46 48 56
-1264.281273 -282.236218 -297.054958 132 141 155
-1238.006306 -606.604815 -303.420877 116 120 126
-1273.116207 -235.993004 -297.758341 84 92 99
-1296.745205 137.532675 -286.844444 51 63 85
-1276.496410 -192.845714 -296.620679 31 35 48
-1276.496410 -192.845714 -296.620679 31 35 48
-1273.787880 -247.067523 -298.467135 79 85 91
-1273.787880 -247.067523 -298.467135 79 85 91
-1284.367085 23.736188 -287.893224 137 143 153
-1283.853817 32.798606 -286.737108 145 154 164
-1246.088791 -591.271496 -305.064607 110 114 119
-1250.059891 -525.198317 -302.895117 118 121 126
-1254.038334 -420.610619 -297.970486 81 88 97
-1293.510246 148.871660 -282.830691 20 33 50
-1235.218143 -602.926207 -300.000429 42 42 48
-1288.533878 86.983132 -283.425522 148 156 172
-1292.441368 143.510520 -281.617332 15 21 39
-1245.170307 -614.680529 -303.990483 52 56 61
-1278.370190 -154.300952 -292.273140 72 78 83
-1270.135689 -274.260950 -295.372868 163 169 175
-1258.742332 -332.660174 -293.568444 137 144 151
-1266.929531 -275.135899 -293.585086 160 167 172
-1270.008469 -325.311089 -297.221327 149 155 160
-1292.055130 137.263167 -280.535960 101 114 131
-1265.627956 -332.289267 -295.638227 148 155 162
-1286.575317 64.175439 -282.169247 60 69 83
-1263.984108 -377.146316 -297.173166 90 97 105
-1263.984108 -377.146316 -297.173166 90 97 105
-1253.600693 -300.422406 -288.178849 143 149 156
-1293.695164 171.078861 -278.506207 14 22 36
-1251.817608 -537.458515 -300.589013 61 67 73
-1249.069881 -504.504728 -297.554541 111 116 124
-1262.829971 -342.819047 -294.244599 76 82 87
-1262.151432 -353.448367 -294.342494 160 166 170
-1238.523102 -615.691471 -298.639703 112 118 123
-1245.800686 -526.031303 -296.707702 34 36 41
-1253.873253 -489.308882 -297.841477 41 46 56
156.635952 185.119283 337.115717 63 132 126
-1250.399685 -438.562202 -292.909384 57 66 75
-1252.287769 -466.872883 -294.692206 72 80 84
-1252.287769 -466.872883 -294.692206 72 80 84
-1273.449612 -212.094426 -289.266872 35 40 49
-1290.966320 123.949063 -277.518201 141 148 163
-1283.775234 53.737724 -278.422904 144 151 159
-1255.786514 -400.382185 -292.302299 173 181 182
-1258.349514 -450.672817 -295.914912 58 63 72
-1277.931595 -188.975310 -289.190698 49 57 69
-1283.882523 47.765484 -278.206921 151 159 167
-1244.840240 -600.355911 -298.232889 97 96 101
-1285.016441 104.290903 -275.190806 126 135 147
-1268.204021 -285.089064 -289.984035 142 149 157
-1285.091114 95.719022 -275.436401 128 137 151
-1259.399891 -372.934365 -291.016030 168 176 183
-1282.488537 68.809152 -275.380850 65 72 87
-1279.479599 -178.287578 -287.970233 146 155 164
-1268.703175 -307.720876 -290.424371 76 81 92
-1241.182041 -611.285210 -295.744276 118 121 126
-1241.182041 -611.285210 -295.744276 118 121 126
-1267.289448 -292.906094 -288.502312 155 159 163
-1245.467567 -540.994263 -293.375182 48 51 55
-1253.125858 -398.287749 -288.158274 186 193 195
-1266.273212 -301.532102 -287.894893 78 84 90
-1239.078426 -584.437895 -292.470336 63 66 72
-1249.312878 -451.051521 -288.997269 144 150 155
-1275.318718 -244.007444 -287.930608 78 85 93
-1254.063892 -428.861618 -289.351940 75 80 88
-1271.415138 -248.545527 -286.053109 162 168 172
-1242.809391 -590.058899 -293.356681 35 38 43
-1242.809391 -590.058899 -293.356681 35 38 43
-1250.839806 -460.827637 -289.288259 115 121 128
-1271.062946 -165.077782 -280.870390 59 65 74
-1249.806976 -546.440649 -292.731571 46 48 53
-1257.757092 -422.441292 -288.327241 69 73 78
-1257.757092 -422.441292 -288.327241 69 73 78
-1267.506981 -306.161928 -285.687923 162 167 174
-1267.506981 -306.161928 -285.687923 162 167 174
-1269.650269 -311.968827 -286.863804 135 139 145
-1258.098698 -402.017641 -286.994743 41 47 51
-1247.112179 -588.400698 -292.624640 160 164 168
-1263.778019 -322.321558 -284.093761 43 50 55
-1249.266243 -575.840902 -292.552757 139 143 148
-1237.750340 -613.224316 -289.620042 59 62 67
-1252.378273 -510.549784 -289.788103 46 51 60
-1252.378273 -510.549784 -289.788103 46 51 60
-1259.421158 -439.650106 -288.652468 92 96 101
-1273.040867 -296.319914 -285.807705 102 107 113
-1250.952435 -526.578474 -289.441037 62 69 74
-1257.303333 -416.460896 -285.663104 81 87 93
-1273.558426 -280.024934 -284.465861 149 155 164
-1258.813000 -390.862775 -284.535742 91 100 109
-1283.780956 -161.976862 -281.670237 75 83 100
-1271.546459 -339.796519 -286.597586 82 88 95
-1250.308514 -504.908180 -287.239933 48 54 66
-1247.622871 -599.484062 -291.371536 102 102 108
-1243.365955 -625.336409 -290.659904 39 41 46
-1276.284790 -216.801786 -280.589032 180 187 202
-1258.142757 -404.046297 -283.784461 145 151 155
-1251.352024 -500.170326 -286.120582 62 67 78
-1257.448006 -424.487877 -284.244299 133 139 144
-1283.824825 -172.977078 -280.270386 28 35 44
-1275.713921 -206.728983 -278.858590 90 98 110
-1257.423210 -576.365709 -292.587781 50 54 60
-1269.825268 -325.855303 -283.222556 158 164 175
-1263.530159 -394.600463 -284.346700 170 178 186
-1272.916412 -309.632707 -283.241582 111 119 123
-1271.722221 -256.973386 -279.117489 175 179 186
-1272.445011 -300.160885 -281.725001 154 160 167
-1247.912121 -504.839230 -282.853937 120 127 135
-1255.638695 -564.828539 -289.457583 119 125 132
-1269.959164 -333.389449 -281.856632 178 188 200
-1269.959164 -333.389449 -281.856632 178 188 200
-1254.875374 -495.031929 -284.938264 140 146 153
-1274.504375 -295.276475 -281.351972 147 153 160
-1274.455070 -268.432236 -279.654026 172 178 184
-1281.327438 -184.019339 -277.485347 64 70 80
-1255.570698 -538.839245 -287.486005 121 128 136
-1258.960629 -513.989830 -287.397313 102 107 112
-1258.960629 -513.989830 -287.397313 102 107 112
-1271.091366 -350.743866 -282.830977 169 175 182
-1274.317646 -303.687906 -281.304884 80 86 91
-741.958046 -455.247164 -69.713306 68 68 73
-1242.493629 -640.037012 -287.088943 128 131 138
-1257.318115 -454.379463 -281.811762 154 160 167
-1278.600025 -231.632710 -277.522230 73 80 89
-1288.871098 -210.824466 -280.377650 147 155 162
-1283.526993 -172.875905 -275.220633 149 154 161
-1252.593803 -503.497267 -281.748724 122 128 135
-1262.189674 -394.835567 -277.967000 151 157 165
-1262.189674 -394.835567 -277.967000 151 157 165
-1257.543278 -572.708130 -286.347032 58 64 71
-1278.016758 -218.885446 -273.802590 174 179 181
-1255.215549 -607.399082 -286.373258 117 118 125
-1255.215549 -607.399082 -286.373258 117 118 125
-1259.067249 -499.716520 -281.491590 120 126 132
-1259.067249 -499.716520 -281.491590 120 126 132
-1250.662518 -637.524605 -286.148119 106 109 117
-1272.791862 -343.764734 -277.864671 154 160 167
-1277.358818 -266.464639 -274.785280 73 80 86
-1285.677719 -191.117132 -273.689318 135 142 154
-1280.617809 -211.473680 -271.922135 81 88 97
-1288.545609 -176.075661 -272.497034 90 95 100
-1255.294418 -600.677443 -283.867216 139 142 147
-1278.034592 -247.899604 -272.284508 174 181 185
-1287.291908 -169.619715 -270.451760 179 183 191
-1269.720554 -590.039492 -288.251162 73 73 86
-1282.545853 -218.537331 -271.192026 104 111 121
-1284.503269 -212.587881 -269.574070 164 172 182
-1284.503269 -212.587881 -269.574070 164 172 182
-1280.881691 -256.515169 -270.178866 155 162 171
-1281.051445 -236.451340 -269.061375 67 78 86
-1288.551712 -205.773449 -270.201373 49 57 66
-1263.301945 -602.897024 -283.231425 70 68 73
-1285.939598 -206.677914 -268.631005 49 57 66
-1283.547115 -200.574064 -266.513419 131 136 145
-1291.476536 -218.828559 -270.597482 131 140 149
-1290.275764 -196.917987 -267.984962 132 137 145
-1285.005188 -233.969879 -267.599177 170 180 187
112.560093 185.527277 325.450444 81 209 180
-1290.566254 -222.860885 -267.658234 37 47 53
-257.742143 183.709240 186.338997 14 89 87
-649.316168 185.626173 35.301667 127 234 219
3.352841 182.143891 291.095138 114 215 185
167.723954 182.626843 355.129814 141 222 198
148.889315 181.655550 351.723790 24 107 76
-29.992998 179.610109 286.516809 22 99 71
-37.493333 176.229239 296.182179 100 195 155
-30.168176 177.450907 305.386662 145 227 199
-28.077552 176.164806 309.785175 112 220 184
2.434561 180.491841 320.392060 10 93 69
-1510.617638 -675.907183 -239.228654 227 221 205
148.783052 181.611347 370.038700 128 203 195
-1517.459774 -700.712776 -227.393723 209 201 188
-1500.451469 -676.837826 -217.563605 232 214 201
-71.630836 174.014413 303.282762 157 232 208
150.566435 180.119026 375.316620 85 205 161
150.959814 179.758489 375.535011 85 205 161
43.607685 180.477774 343.673992 36 122 102
147.958934 180.079901 375.644231 186 235 216
94.531769 178.123116 359.222174 34 61 77
-123.850298 174.691319 292.918706 150 237 208
-1501.362038 -704.234982 -189.190173 67 54 46
-12.590565 176.303566 333.656120 124 210 181
-1485.166550 -702.054882 -164.419711 219 216 209
-8.843743 -90.734488 314.999294 80 87 93
179.879737 182.903647 392.807722 29 123 90
179.007459 182.617819 393.344140 155 243 231
-1471.447659 -693.243933 -145.103717 243 231 225
-1513.441467 -677.994680 -153.988397 251 233 227
27.447543 -1.848578 335.443497 205 208 205
26.692533 -3.432042 335.487509 200 200 192
129.323304 181.066024 380.636072 85 205 175
-1529.068851 -675.834846 -152.845573 242 231 220
28.246132 1.032727 337.151003 166 172 170
-134.347200 170.732152 308.328724 172 234 210
27.865505 1.341514 338.934040 113 121 121
-144.307411 169.126594 309.349966 45 127 88
-34.067959 173.370385 339.305472 91 165 131
-33.731961 175.936162 339.676404 81 150 135
-34.421316 174.683332 339.585423 17 74 58
-6.131165 174.462163 347.491455 29 98 68
25.719446 -11.480125 340.325046 139 141 142
25.794569 -10.138667 341.677189 98 100 103
32.083967 -0.307437 344.425058 221 227 226
0.437965 -74.473250 329.442716 171 201 212
0.015192 -75.930637 329.571390 147 185 199
28.052366 -5.589343 343.766594 113 113 117
86.374986 180.512929 376.729274 126 215 187
24.142973 -12.692705 342.939639 176 173 176
3.653809 -71.544349 333.583808 86 95 98
29.874742 -2.910724 346.809363 48 52 63
5.906494 -65.295804 335.063744 129 143 141
-63.615805 172.129810 340.779018 145 204 166
29.582921 -3.551044 347.790098 161 163 170
2.591301 -76.692039 334.159040 49 65 69
3.137638 -78.346133 335.333729 108 126 126
80.472118 180.892789 379.807758 173 236 252
14.122404 43.153563 350.124383 123 132 128
4.612860 -74.048728 336.602569 70 82 82
81.492233 180.187702 380.833483 173 234 251
8.929720 -58.079708 340.103388 81 101 106
8.929720 -58.079708 340.103388 81 101 106
7.691054 -67.561066 339.488173 129 151 150
-18.697983 173.855984 357.040811 110 174 131
82.875293 180.772793 382.355237 67 153 164
8.734789 -56.488055 341.184640 78 92 100
4.813450 175.612819 363.173103 108 183 151
3.429700 -78.878742 337.819266 82 97 93
13.307658 -85.127169 339.683771 77 90 87
30.588490 -10.246582 351.245856 48 50 53
30.588490 -10.246582 351.245856 48 50 53
34.412277 -3.630840 353.145552 213 210 211
-24.196747 172.552049 356.560922 6 35 13
-23.991247 166.807187 356.313944 131 208 172
15.008384 43.908435 353.576207 114 121 119
4.681861 174.918509 364.160728 108 202 171
-15.339164 174.321771 359.411311 97 196 161
16.753486 43.031541 354.049683 107 112 113
25.967667 -20.484617 349.923348 113 114 115
35.901770 0.108656 354.398465 199 200 198
-22.417718 173.723650 357.941914 4 52 17
182.706511 181.299186 407.630634 77 181 143
9.410217 -56.496000 342.994690 158 177 182
20.827909 -92.500371 342.196107 213 216 214
-1422.200108 -700.834942 -57.757491 31 33 41
11.945439 -45.480067 345.438004 166 177 180
-18.118829 174.153674 360.544872 105 199 167
-26.503778 171.830165 358.689690 71 154 117
10.552539 -51.706588 344.983220 54 68 79
31.564122 -15.332113 353.621936 127 125 126
32.414904 -14.890043 354.045272 129 129 132
12.047709 -40.981844 347.051072 142 153 159
8.813670 -66.524303 343.861008 118 134 137
12.493293 -38.471687 347.847271 13 20 29
68.968308 179.744685 382.958150 150 208 230
12.470228 -37.280750 348.136830 4 9 16
28.195673 -20.550042 353.562021 208 207 208
8.379002 -69.965529 344.552159 128 154 151
17.546852 -25.963119 351.359749 208 209 209
32.361218 -11.654179 356.605554 167 168 166
34.833077 -0.988701 358.335996 157 161 163
31.111002 -15.667766 356.061482 94 97 99
31.111002 -15.667766 356.061482 94 97 99
31.399599 -15.744057 356.185794 94 97 99
-1473.424625 -674.700403 -53.488886 57 65 65
-1392.330170 -694.626093 -36.836699 47 52 56
11.243259 -53.188068 347.927380 146 161 167
18.536620 -95.216215 345.540309 201 195 192
34.825444 -4.713219 358.561635 160 163 168
33.112824 52.141917 364.015365 179 182 188
21.214035 -91.289723 346.765542 59 69 61
12.464814 -45.016536 349.536467 80 92 100
12.464814 -45.016536 349.536467 80 92 100
-1380.568409 -705.524635 -32.868016 116 111 104
-24.574059 172.908068 363.500047 64 151 114
32.973221 51.052082 364.202642 168 172 177
32.142943 50.120932 364.203167 176 179 187
18.952711 -93.906420 346.549368 66 62 63
34.044424 0.270956 359.596992 166 171 174
36.151049 73.618722 367.615247 80 90 91
28.515854 43.670943 362.960267 123 128 135
12.864199 -45.226657 351.032090 154 168 174
149.585247 179.709971 404.860067 103 194 161
34.841064 53.790307 366.326451 185 188 193
26.450461 -22.418357 356.670833 172 168 171
185.237825 175.503433 412.849379 76 195 168
30.913243 46.458644 365.787983 179 183 188
30.913243 46.458644 365.787983 179 183 188
37.524846 57.698160 368.448949 98 99 103
37.524846 57.698160 368.448949 98 99 103
32.772282 2.450520 361.794782 153 157 164
27.967823 -21.033262 358.738923 111 107 112
26.383865 -23.169018 358.184862 120 115 118
37.040040 64.377797 369.692492 103 109 116
19.336976 -85.606283 350.334024 66 78 70
13.875993 -32.712036 354.681182 105 119 124
13.875993 -32.712036 354.681182 105 119 124
13.875993 -32.712036 354.681182 105 119 124
22.057468 -89.294118 350.725460 52 57 54
38.214403 72.814709 371.531343 124 128 134
15.564053 -29.339096 356.045485 193 197 196
7.204881 -72.649258 349.881983 65 83 82
-99.280149 169.380498 352.103233 6 109 71
21.643196 -12.123412 360.264635 64 70 81
36.715594 62.540662 371.350622 109 116 124
15.234827 -46.125591 355.456424 35 46 48
32.804984 47.942892 369.207048 158 163 165
37.720451 71.874940 373.005795 5 8 11
24.575502 -6.806831 362.290263 92 98 106
35.476914 56.921792 371.327043 151 154 162
29.321513 -1.371646 363.970304 177 176 179
20.651041 -92.301762 352.563190 213 211 208
37.060222 67.593002 372.956729 134 138 144
26.503286 -4.282602 363.196349 111 115 120
20.903409 -87.847507 353.521752 120 127 124
21.430752 -9.589656 362.000561 87 96 104
34.826738 2.220050 366.388559 64 62 67
20.454974 -87.028050 354.022026 34 42 38
34.074602 51.489139 371.688986 45 51 58
36.050913 5.211904 367.215586 110 107 109
17.917207 -19.507951 360.810328 114 120 125
17.410544 -49.016199 357.729292 152 154 154
16.998480 -28.734621 360.160232 129 143 150
34.257236 52.853459 372.569728 51 60 67
38.260972 66.686445 374.927950 71 76 85
17.407481 -27.743474 360.578871 83 95 105
19.502808 -25.610310 361.437011 49 50 55
17.848042 -18.640886 362.240577 128 138 145
17.985576 -16.949074 362.463641 127 137 143
19.402558 -14.145868 363.200235 159 169 178
37.616616 7.860906 369.385529 213 211 213
34.522361 2.628390 368.266964 25 24 30
-1411.443996 -691.264439 -2.573033 31 34 35
38.168797 66.198492 376.009798 142 148 155
38.270038 66.124862 376.048350 142 148 155
37.627774 8.694894 370.023656 92 89 94
14.692903 -77.116621 356.282020 79 87 87
15.929748 -46.448237 359.845972 99 98 96
34.781396 3.533693 369.436598 111 112 116
15.259941 -73.925656 357.157445 114 121 120
37.410828 15.103431 371.268463 45 53 57
19.258113 -24.774432 363.368154 157 161 163
38.616091 66.367948 377.157235 41 49 56
16.766293 -68.811798 358.199835 178 196 205
23.054241 -9.757883 365.917158 141 141 145
16.548894 -21.562542 363.633204 20 27 31
19.523363 -86.413157 357.398009 110 112 113
15.339351 -78.222418 357.547712 25 33 32
16.604674 -30.396613 362.978411 12 16 24
38.883665 68.177861 378.160405 62 70 77
18.474263 -24.621658 364.045501 8 9 12
38.574955 15.861973 372.483897 31 37 41
-1414.551640 -693.545723 3.843562 180 183 184
18.852580 -84.185696 357.794476 17 24 21
17.030473 -29.120475 363.412666 146 167 171
18.577224 -26.599813 364.221239 163 168 172
16.977289 -28.607705 364.162731 32 43 47
-1483.589077 -622.937441 0.927047 240 230 219
16.174544 -21.396586 365.133452 83 101 112
18.310484 -83.801645 358.935332 159 163 160
39.033106 15.105158 373.945665 209 213 213
38.303065 17.064036 374.066138 37 43 46
36.769271 6.288380 372.626734 158 154 155
17.505853 -24.706461 365.464902 16 17 21
15.995398 -76.725155 359.641957 54 62 62
-1481.147194 -618.577003 5.981432 88 90 77
16.750008 -32.768324 365.139008 78 80 82
37.993482 17.275590 375.179148 121 128 134
37.270615 6.624426 374.033237 211 208 207
36.585790 27.552986 376.372027 167 169 173
36.479977 1.190570 373.715973 158 157 158
38.303855 15.132214 375.597787 10 13 18
36.964890 8.274452 374.622941 25 28 34
21.283878 -50.985569 365.101528 116 120 123
35.715857 -0.703674 373.648357 136 136 141
21.096446 -60.283196 364.737082 198 198 202
16.424720 -80.823523 361.598611 31 38 37
22.153330 -55.146593 365.549636 125 128 132
20.954917 -66.803801 364.118266 222 222 224
20.938906 -51.383352 365.988278 113 116 121
16.024841 -26.318917 367.974663 66 69 70
36.336112 0.926301 374.969745 210 206 206
38.381600 17.436033 377.424192 24 30 34
20.565319 -47.865385 366.867137 192 194 195
14.484370 -87.961239 361.518717 217 211 208
38.188919 15.407357 377.587557 190 191 191
35.149640 -0.605744 375.281668 212 208 205
20.782830 -59.241730 366.128945 136 133 135
37.446114 11.711603 377.214766 202 201 205
19.702739 -64.670002 365.703225 194 194 195
17.773758 -75.058639 364.497232 7 9 14
36.370733 10.047054 377.592349 124 123 129
20.832963 -41.183004 369.226122 209 211 212
75.600624 175.773764 403.684473 191 197 196
39.295828 19.248359 379.585671 39 43 47
38.074523 15.162113 379.056025 156 153 153
32.571566 3.704148 376.757455 69 72 85
13.360313 -87.660760 363.026452 65 59 60
39.213303 16.016495 379.455376 201 198 196
28.756052 -6.361216 375.220490 191 187 189
36.315790 9.893910 378.498387 139 138 142
19.265236 -70.658439 366.481543 216 212 211
19.141428 -68.880874 367.109871 210 205 202
30.860028 -2.768327 376.779342 163 163 169
14.824323 -82.655793 364.915347 198 196 196
93.204153 176.832640 408.396292 203 208 207
52.407837 39.978901 385.646582 154 150 155
19.771306 -45.037848 370.248437 134 137 145
19.122787 -57.609534 368.774724 89 88 94
37.724128 11.149577 380.158567 175 170 171
29.595792 -3.291353 377.505183 81 81 92
36.012062 9.123938 380.105710 187 181 183
83.410686 174.742866 407.340670 176 224 249
18.326372 -61.635518 369.049883 189 186 188
32.517475 5.675058 379.281640 183 178 180
28.865609 -4.619982 377.464771 81 80 90
133.231521 178.431630 416.987181 74 200 170
17.987402 -14.727484 374.520469 12 15 23
50.788563 35.327962 386.072493 117 116 121
17.045520 -21.676435 373.882675 11 17 22
31.805351 3.108124 379.379916 105 106 116
16.715233 -74.917990 367.872071 20 22 22
174.676251 178.898013 424.883175 54 199 157
15.272354 -73.192376 367.875838 17 19 21
17.137890 -12.192097 375.135875 113 117 122
19.516815 -57.987243 370.703459 209 204 203
9.348643 -85.235626 365.920234 152 147 148
19.912401 -42.365274 372.679996 195 201 206
75.065690 173.540258 406.973124 55 95 131
12.570933 -83.773983 366.777229 37 32 36
17.398968 -20.655662 374.800515 6 13 23
-1194.816875 -570.659685 97.842687 116 102 94
54.530287 48.204282 389.470387 16 20 23
54.530287 48.204282 389.470387 16 20 23
29.506084 -1.884907 379.428887 173 170 177
-1196.892452 -563.805962 99.834138 120 90 70
14.875931 -72.165370 369.135666 180 182 183
16.821112 -65.658689 370.228338 202 202 206
15.548511 -72.246742 369.391489 180 182 183
52.086502 36.836889 388.258934 165 160 162
48.371154 31.237087 386.996078 103 102 106
48.371154 31.237087 386.996078 103 102 106
17.985025 -20.760332 375.837708 144 151 157
38.304013 15.024279 383.534861 182 183 187
15.412189 -80.715144 368.813872 221 220 219
18.242162 -79.364514 369.599819 42 42 42
17.586769 -58.635783 371.942711 225 221 217
20.080949 -47.512949 373.709178 187 194 197
55.323553 44.133142 390.384436 165 163 169
19.316053 -55.004352 372.957015 189 185 181
9.496422 -85.035050 367.822695 211 206 203
20.002240 -43.178970 374.569058 138 144 153
74.888575 173.229015 408.869934 143 193 226
29.566085 -2.073612 381.073022 174 168 169
-1203.525829 -562.671709 104.297352 240 218 204
52.743638 40.378538 390.064692 104 98 104
48.217717 27.874321 387.861013 146 146 152
37.506670 8.561666 383.834434 202 200 200
54.671067 42.092291 390.809679 150 142 143
7.733085 -89.450806 367.778063 214 212 211
15.652767 -65.358531 371.907759 117 116 120
15.652767 -65.358531 371.907759 117 116 120
24.403784 -7.871024 380.034018 194 193 195
47.652310 25.222725 387.825942 178 174 179
53.938729 39.206460 390.508890 158 153 157
172.820771 178.351724 426.979589 183 243 227
16.182387 -76.192105 370.966339 38 41 40
20.185222 -35.430282 376.434803 200 203 203
15.822719 -62.329018 372.609425 218 216 216
30.683705 -0.484287 382.333803 211 206 205
96.237099 174.824893 413.790417 119 130 126
58.505034 138.213003 403.178167 113 119 123
26.820359 -4.021578 381.574130 194 192 195
17.362471 -12.914905 378.954387 74 78 83
7.097717 -88.095486 368.606114 87 83 83
7.097717 -88.095486 368.606114 87 83 83
55.468380 44.136038 392.106652 156 150 154
14.932737 -78.710496 371.235585 106 107 108
37.603492 7.236184 384.996033 192 189 191
16.443561 -56.596792 374.079347 164 159 159
63.325375 163.083780 407.515574 56 79 81
14.382543 -67.591894 372.722769 212 211 210
460.590553 -84.015632 493.613052 8 9 10
15.014139 -66.055495 373.045754 144 142 141
15.643451 -59.521282 373.908901 166 161 162
13.774098 -69.803703 372.415113 12 14 18
17.943311 -54.837990 374.846888 179 175 174
20.345265 -35.211703 377.554655 89 94 96
33.252159 17.008613 385.909414 133 139 145
55.267864 44.124967 392.825031 180 176 180
13.810660 -68.811458 372.809100 228 230 233
34.608209 5.344269 384.893107 202 197 196
55.991358 45.841157 393.207836 51 52 58
34.067589 18.715078 386.428714 125 127 132
58.208847 138.041735 404.477978 93 100 103
18.174672 -22.436881 379.371166 136 142 148
15.143967 -78.931314 372.339535 114 113 115
94.753754 174.695158 415.079308 45 95 97
-1224.358463 -557.369375 110.645735 214 198 191
50.289673 34.414601 391.477299 184 182 182
50.289673 34.414601 391.477299 184 182 182
14.747350 -60.534370 374.588752 203 202 202
60.000008 151.960623 406.863880 126 138 144
56.406081 46.363792 394.014740 23 26 30
17.702284 -11.776746 380.930185 18 18 22
31.217316 12.412212 385.989690 26 35 49
22.130147 -46.577975 377.683425 219 222 223
50.239956 35.903171 392.090487 93 90 95
47.122779 26.787981 390.524721 121 120 124
31.869566 2.287157 385.384035 185 181 182
-1218.005848 -566.538620 113.505912 225 218 198
95.468879 175.797951 416.102171 14 38 29
17.548060 -9.238005 381.748223 183 202 213
20.009702 -48.444670 377.635598 156 153 155
32.955989 17.578882 387.620306 8 9 16
22.811741 -6.493270 383.367634 84 93 106
32.395729 4.099055 386.174226 185 180 182
46.725646 25.309747 391.066098 111 104 109
38.059437 22.455342 389.342070 214 213 223
52.285874 40.879709 393.859434 144 136 139
31.045660 12.080702 387.142539 110 129 144
31.045660 12.080702 387.142539 110 129 144
15.041552 -56.780934 376.505828 175 172 173
59.516007 150.553763 408.161163 88 100 104
95.998555 173.765552 416.877842 127 223 207
35.374039 19.938950 389.058781 131 132 141
19.542822 -8.611277 383.218026 148 166 179
17.885974 -15.635499 382.431531 118 127 134
18.301120 -19.606447 382.172680 67 70 76
34.340057 5.114239 387.682676 32 32 36
22.546282 -37.263721 380.831075 218 219 217
20.401068 -43.181285 379.996395 168 165 167
47.661737 32.451236 393.453765 78 79 90
47.661737 32.451236 393.453765 78 79 90
-1234.077930 -567.606831 118.010032 226 217 196
47.673890 34.293640 394.019651 154 154 160
58.866280 150.047839 409.519958 67 75 79
48.420572 28.654009 393.674707 184 182 183
36.086562 21.229126 391.388893 72 72 82
21.746670 -34.767726 382.644939 158 158 157
17.360741 -15.489066 384.412360 118 125 130
17.026556 -13.072874 384.764671 117 122 127
95.148474 173.424578 419.143295 152 219 192
135.960340 176.174474 425.965357 186 231 218
58.060175 54.373741 399.617553 173 172 176
20.203170 -24.476461 384.485722 15 19 23
18.434466 -22.099020 384.551907 90 95 100
16.115613 -41.860738 381.875706 77 74 80
14.152147 -45.621100 381.333756 218 214 219
16.850890 -13.960445 385.543895 112 118 123
46.839818 35.015813 396.085644 184 181 182
49.200541 39.506462 397.109294 160 158 165
30.140755 -2.287161 389.703274 211 211 211
50.939757 41.624656 398.125648 173 166 169
58.945668 146.399343 411.935902 117 125 125
20.815727 -26.883990 385.694861 213 211 211
45.186973 32.558233 396.538377 185 185 192
36.375031 22.258939 394.051814 93 92 96
58.797181 147.531724 412.499475 72 83 82
58.797181 147.531724 412.499475 72 83 82
45.923337 33.508760 396.949100 142 141 145
45.923337 33.508760 396.949100 142 141 145
15.186405 -40.776646 383.547616 208 204 205
39.777368 25.003624 395.168328 186 183 190
19.764708 -29.477221 385.751104 154 154 158
1.784550 -58.359033 379.631352 6 5 11
1.784550 -58.359033 379.631352 6 5 11
41.075194 30.469853 396.193075 91 92 108
13.047908 -10.371002 387.160850 87 90 94
59.579682 137.564981 411.905432 87 97 98
33.510831 17.109624 393.610096 19 23 28
49.830028 40.064031 398.856354 179 175 177
31.674057 4.766710 391.938496 202 197 200
30.924878 0.707260 391.582227 69 70 76
94.532377 172.577929 421.780348 200 208 206
1.617143 -59.547627 380.064917 186 190 193
58.853787 55.469722 402.415800 179 178 180
46.066403 34.163669 398.064113 179 175 179
13.959527 -8.707358 388.376141 43 51 61
45.864859 120.807052 408.710670 154 160 167
59.101921 150.035942 414.306307 109 116 119
39.994147 28.161204 397.028804 91 93 103
52.332234 46.755174 401.125288 201 197 201
36.645421 22.891167 395.959616 130 129 136
53.628647 47.693017 401.748514 133 129 135
