ply
            format ascii 1.0
            element vertex 59244
            property float x
            property float y
            property float z
            property uchar blue
            property uchar green
            property uchar red
            end_header
-384.131265 775.169468 2392.440033 22 28 60
-627.341461 -1270.115471 3246.302414 134 134 126
7.125005 1082.837391 1825.196266 112 119 122
-736.755466 -832.499790 3274.374771 39 22 31
-312.340450 999.441051 2251.642227 6 11 15
-368.635583 781.847620 2380.899811 96 102 116
-541.601896 -1315.852737 3165.904617 48 37 30
-3812.066269 -204.771590 6996.655273 236 219 199
-345.497227 801.477623 2364.397812 46 59 100
-705.697155 -876.888847 3274.733734 53 51 40
-151.934552 1022.655487 2062.232971 61 75 82
-151.934552 1022.655487 2062.232971 61 75 82
60.297829 1077.851772 1780.230522 5 6 10
-336.189938 764.285803 2365.870857 5 6 29
-527.637196 -1294.145584 3165.886116 118 125 111
27.572656 1080.377102 1821.903419 109 116 121
269.035149 1076.616287 1520.639801 33 39 44
-281.182837 948.424911 2251.931763 9 11 13
-334.415269 850.236130 2347.469902 171 176 175
-329.470587 751.583290 2371.199799 180 184 185
-698.629618 -877.254868 3284.340668 98 99 83
-14.561373 1042.575073 1895.380783 10 12 16
-330.215645 760.988140 2372.726250 179 184 182
-300.461173 945.093632 2286.334801 166 170 171
-11.756019 1039.625835 1898.003578 151 160 169
-536.742306 -1342.561817 3215.706635 88 86 72
-694.544220 -770.947266 3261.515427 63 50 55
-3771.746826 -263.013244 7047.577667 95 101 86
-318.327618 949.553680 2318.159294 157 161 162
-318.327618 949.553680 2318.159294 157 161 162
-3700.586700 -394.830012 7004.933929 104 131 126
-3700.586700 -394.830012 7004.933929 104 131 126
-677.083492 -865.908813 3272.915649 111 114 98
-3681.829453 -456.910563 7001.280975 158 153 141
-704.881477 -750.459576 3279.807663 27 22 22
-680.358028 -761.322784 3255.602646 146 145 141
-680.358028 -761.322784 3255.602646 146 145 141
32.149076 1083.098602 1841.752815 91 98 105
-672.329473 -789.110136 3256.676865 24 27 40
-51.179808 1052.244186 1957.751083 114 123 127
95.682168 1127.866459 1750.753975 14 15 19
87.980819 1129.717064 1760.641670 52 52 58
68.105066 1002.380753 1823.175812 20 19 21
187.913918 1105.565834 1643.621063 112 119 124
-3524.127197 -284.613395 6809.887695 239 218 200
-141.388345 1026.533413 2092.006683 100 109 113
-3574.911880 -462.983942 6927.545166 236 218 201
-478.869438 -1287.592316 3162.077904 118 112 92
-298.328781 846.075726 2347.208214 149 153 153
-659.028912 -785.908985 3262.718201 19 23 32
-3578.186798 -272.931957 6897.231293 141 139 129
-3578.186798 -272.931957 6897.231293 141 139 129
-564.896250 -1162.229633 3247.660828 251 235 223
-657.948542 -757.824326 3264.731979 150 151 148
-468.425703 -1289.210320 3170.788002 121 113 90
-707.845592 -845.753574 3361.226654 28 27 41
-3492.062378 -454.238510 6892.660522 234 220 203
-465.601110 -1269.613361 3169.972610 125 122 117
-466.503191 -1285.556030 3178.991508 53 38 23
-276.271033 835.211277 2349.404716 190 195 198
113.448977 1072.381115 1777.233124 145 154 158
-459.400463 -1294.070053 3186.796188 160 155 141
-90.308815 1022.425175 2063.260269 80 92 96
-3468.786240 -443.186951 6913.451385 237 226 205
-635.540104 -835.325241 3296.281433 86 86 76
-268.785048 691.988373 2391.850471 129 134 139
118.699908 1122.027397 1766.291237 41 45 49
3224.660110 71.349376 -1847.962761 58 85 96
-580.161619 -1197.366905 3333.212280 252 235 224
-130.737388 983.056831 2143.331718 135 144 147
-679.821682 -739.079666 3356.503677 244 227 216
-209.040213 952.041245 2262.739944 5 5 8
-278.784943 956.122208 2357.769966 73 83 92
-279.844379 950.459576 2361.837959 98 108 115
-160.196221 988.941479 2192.466927 42 49 52
-2374.788857 -2489.882469 6108.480072 29 43 44
-270.310688 724.337387 2418.464470 180 188 195
-550.113344 -1186.756134 3324.364853 54 59 51
-279.911184 734.166813 2429.309654 16 30 62
-279.911184 734.166813 2429.309654 16 30 62
-593.136549 -778.098726 3272.249985 79 93 96
-277.888155 960.550022 2366.689873 152 162 167
-593.810844 -830.321217 3292.729187 108 109 95
-587.924767 -828.078270 3285.538483 108 109 95
-272.610784 968.992519 2365.934944 41 52 60
-272.610784 968.992519 2365.934944 41 52 60
-72.259450 1025.566959 2087.425613 120 131 134
-573.279715 -830.443859 3286.626053 22 16 8
-178.209317 946.126938 2259.512138 115 122 129
-668.808699 -733.099413 3399.252319 233 225 216
-89.416575 983.983231 2133.407021 10 12 15
-591.874170 -651.748085 3279.183197 240 223 210
195.062470 1127.306080 1712.468147 103 110 113
-3142.227173 -2585.046196 7351.129150 244 226 215
-384.122157 -1248.252773 3192.290115 116 118 104
-1017.461205 1189.079571 3379.520416 55 58 63
1605.107880 62.597042 363.227820 184 183 171
-142.449629 950.035572 2253.136253 15 18 20
18.230388 1016.378593 2015.045738 9 12 17
-560.531855 -778.290606 3322.871017 84 105 103
-534.750462 -1164.598846 3398.585510 248 233 220
-997.241497 1188.604259 3383.856201 44 49 53
-992.309570 1123.582172 3397.256470 103 106 110
47.213179 1058.025169 1977.743912 96 105 108
298.838496 1096.722031 1618.459511 33 44 47
-991.297722 1183.156586 3393.768311 167 171 176
-989.438915 977.135563 3450.514603 18 25 65
-523.111725 -854.712486 3330.270386 59 50 34
-985.100746 1191.688442 3398.944092 88 94 101
-338.977695 -1266.774750 3198.041534 150 118 91
189.934301 1071.171474 1790.250969 101 108 111
2088.207626 312.854695 -631.461477 248 234 223
-81.139344 988.227844 2198.767090 79 89 92
-505.637932 -831.932926 3317.242813 115 109 97
-982.612991 1204.475307 3407.256699 81 88 97
-977.454281 1213.108635 3399.002075 117 124 132
-21.049182 1022.272110 2109.416199 10 12 12
226.042891 -579.294157 2285.777283 62 73 70
-982.053280 1039.901829 3467.918396 183 185 187
-483.271313 -835.308170 3312.783813 23 17 11
-985.825157 1216.867352 3437.880325 53 61 71
-516.885996 -1134.405231 3456.208038 249 229 218
-310.968328 -1232.898998 3193.677330 121 117 111
-331.449628 -1210.181236 3218.015289 81 90 97
-983.030796 1194.723606 3459.015274 170 173 180
-42.698103 1001.035690 2174.562263 127 138 142
-992.025280 1175.647354 3483.224487 135 138 143
-330.870867 1018.362522 2584.102821 63 69 80
252.084851 1127.283287 1723.482513 47 55 58
-49.961936 987.161350 2199.242973 79 88 91
642.928791 993.140697 1201.703835 20 27 31
642.928791 993.140697 1201.703835 20 27 31
-654.370546 -685.308933 3563.107300 243 227 220
150.864005 1043.172359 1904.432106 77 88 93
-387.485051 -726.571941 3199.988556 64 85 83
95.045680 1011.128235 2000.282478 15 19 24
-440.747881 -881.066990 3340.783691 246 226 215
-689.445066 -1559.546375 3901.261902 249 230 218
620.930386 652.147627 1370.409298 151 160 169
286.818266 1126.863480 1717.560387 32 44 47
235.953331 1032.765770 1822.623253 13 13 13
-414.608288 -867.334080 3340.976715 249 229 215
405.262899 1084.927082 1558.497524 110 116 120
273.836088 1131.938839 1740.543747 33 43 43
41.018102 1027.863693 2118.324280 18 20 21
48.809430 987.956047 2120.143127 21 23 23
-412.987900 -794.964790 3334.962845 84 101 99
-234.366059 -1237.963676 3203.816986 60 37 28
-403.870535 -872.159290 3350.339508 111 84 53
482.484579 1062.407494 1463.314056 123 128 129
2462.277031 166.481936 -1220.876598 166 169 174
-236.097455 -1253.633499 3219.736481 185 166 147
241.578746 1079.107094 1825.382233 23 27 29
207.806683 1038.109589 1889.105415 114 120 125
-228.472829 -1242.665577 3217.586517 90 74 64
-254.926634 1015.260124 2592.120552 53 59 66
479.493809 1066.742325 1476.161766 107 112 115
274.305725 1074.475861 1783.301735 53 61 65
-393.762469 -859.358597 3362.852097 47 44 45
-489.704704 -720.096397 3471.847153 77 98 96
2046.356583 175.743067 -583.416319 93 96 96
-206.554675 -1249.794292 3202.085495 249 227 214
-231.513000 1020.046139 2569.546509 51 60 65
-642.945576 -649.466991 3687.362671 58 71 69
234.313369 1034.049511 1867.148781 11 11 15
-680.941582 -1599.378014 4039.361191 169 154 137
-459.020758 710.562658 3024.001884 175 184 183
-216.496444 -1181.836796 3216.933060 77 94 89
255.498838 1076.698971 1829.405975 170 175 176
-197.142327 -1205.239105 3197.315979 34 27 32
257.069278 1019.335270 1845.693016 11 11 15
-413.347149 -771.465349 3402.593994 20 27 38
592.105293 1027.350140 1334.708691 139 146 148
254.428959 -704.152536 2365.445518 248 233 220
594.709587 1025.131321 1332.699680 139 146 148
-492.834091 496.317339 3155.251503 159 171 173
597.401047 1028.619766 1331.751823 30 37 40
-352.274466 -883.352566 3367.969131 248 227 215
45.883444 991.271305 2201.222992 104 111 115
274.464178 1082.700062 1824.025536 3 5 18
232.646394 997.235966 1921.958923 18 18 18
389.107347 1107.921314 1647.706985 111 116 120
282.174683 1030.399609 1839.786911 210 216 211
-305.174875 -176.809347 3118.959236 87 89 91
-366.519046 -745.245647 3386.862564 17 18 29
38.681409 946.844578 2247.817230 164 175 179
-151.804066 -1225.519180 3202.176285 126 119 110
-359.670711 -756.901360 3386.705399 85 93 102
284.852529 1048.058605 1844.478798 199 208 202
-332.187104 22.974497 3124.279785 9 16 30
652.577114 1019.725227 1280.825424 15 19 25
-279.845190 -155.945027 3109.021378 21 21 21
-131.716490 -1215.092278 3202.691269 33 25 25
-308.114648 -883.902454 3383.535004 56 53 51
331.004763 1079.940891 1780.837822 38 47 56
-310.017538 70.952475 3105.504990 132 139 138
-310.017538 70.952475 3105.504990 132 139 138
-292.204523 1067.444897 2778.403282 83 92 99
-316.311026 1073.636341 2815.828133 15 17 25
144.872248 980.517101 2115.196228 17 21 27
-297.843647 -910.718727 3396.694565 251 233 212
286.302900 1025.774479 1877.171707 155 165 162
-301.558018 63.168633 3107.202148 22 31 58
-293.133855 -907.705212 3389.747620 251 233 212
1583.338165 58.660227 421.549225 159 171 173
-295.697236 -707.382631 3335.243225 161 168 167
-117.601347 -1172.019005 3200.404739 83 100 96
-292.948723 56.448549 3107.051086 137 145 154
-292.948723 56.448549 3107.051086 137 145 154
-242.602682 -1043.183804 3363.663101 20 23 33
290.609121 1085.372448 1860.630798 182 195 194
-285.993838 -887.364197 3386.486816 143 148 151
-279.282641 -672.707224 3310.773849 160 165 164
623.059797 1031.811905 1345.812225 54 59 60
-278.704500 -867.087841 3370.079803 149 156 159
-286.275625 -910.843849 3398.481750 127 124 123
-386.979342 -33.743113 3291.757584 51 70 75
288.604784 1094.646454 1868.664360 26 33 47
-247.673512 -1429.333878 3503.488922 173 143 133
515.033340 1075.414944 1511.505032 54 59 62
338.819146 1083.033848 1793.784714 77 89 93
338.819146 1083.033848 1793.784714 77 89 93
-110.181069 -1194.716835 3215.229797 106 115 119
-286.210680 -201.471329 3195.744896 169 171 172
-279.002285 72.686601 3100.489998 147 154 151
-282.516074 -984.982491 3434.997559 32 39 47
338.861394 1136.014557 1781.950760 18 21 25
-267.568588 -915.041637 3389.622498 132 139 142
-224.328947 -48.505086 3055.831146 132 134 134
336.716890 1084.237766 1803.477097 42 53 60
640.080404 1029.574299 1330.490112 24 34 40
-223.345995 -1042.720127 3362.762451 30 29 44
285.662556 1013.087654 1910.460663 222 224 222
-270.992136 81.420195 3097.487068 25 34 65
-239.374614 -95.051098 3101.618576 48 51 50
116.621006 989.810467 2192.695808 97 106 110
286.501002 1019.280910 1910.517693 122 139 134
-230.215812 -1422.555733 3501.617050 179 160 153
339.994884 1146.245193 1786.416626 97 104 105
-222.852659 -1406.747627 3487.192154 175 176 170
-256.257272 -932.844734 3397.370911 61 66 69
-257.535195 35.953021 3110.431862 129 138 136
-249.195051 -936.814213 3396.720886 125 132 137
289.077902 1029.560852 1913.078499 196 202 197
-248.746395 -918.314552 3391.651917 164 170 166
413.503361 1120.209026 1684.082413 115 123 124
-193.228459 -1056.998158 3349.047852 19 22 31
-216.391253 -93.425137 3091.831970 51 55 54
-509.849882 -1599.205685 4040.695953 145 139 135
-249.655747 81.517422 3099.400139 32 41 72
-250.290322 43.310890 3113.945389 14 18 48
-256.549501 -1040.122700 3460.623550 30 31 45
-185.786569 -129.857695 3065.833282 74 76 74
339.589667 1149.393177 1807.775307 10 14 15
-199.784756 -176.222479 3115.600204 80 82 83
320.186067 1093.657875 1863.862610 92 101 108
-65.408933 -1191.646576 3210.653687 104 109 120
-234.467578 56.773460 3106.795883 14 16 34
-241.855073 868.882275 2868.336868 171 169 169
-189.521134 -1038.881302 3376.835632 84 90 96
333.015299 1103.712940 1845.849228 51 61 67
595.572853 1054.357052 1426.732826 94 101 104
337.679553 1082.042313 1846.035194 92 101 108
333.747101 1091.450787 1851.409912 183 197 204
-227.123570 58.087945 3107.883644 145 156 160
-185.682476 -175.737035 3114.429092 92 94 95
335.577250 1098.315811 1854.068947 38 51 58
-192.190504 -1005.994797 3390.467453 23 23 32
-194.569719 -999.954033 3401.716232 84 89 90
-222.335124 1071.949387 2801.821136 24 28 34
-222.335124 1071.949387 2801.821136 24 28 34
-200.282693 -908.038235 3385.365677 77 84 85
-195.979011 -960.683823 3400.343323 18 19 29
276.813364 976.347160 2002.158546 241 244 242
-192.245221 -1014.584160 3415.485001 16 20 25
-193.706715 -1000.888252 3414.585114 9 11 16
-193.706715 -1000.888252 3414.585114 9 11 16
-186.801207 -1040.739727 3423.152924 84 83 81
-206.892729 878.886318 2855.927467 24 25 31
-193.669689 -967.578316 3418.666458 36 38 39
-208.535981 843.313599 2876.308441 173 173 174
-204.152822 997.149563 2821.935654 102 104 108
-156.304610 -123.843777 3097.423935 42 44 43
-194.782221 90.379667 3097.790718 168 173 172
273.922110 1085.747910 1991.819191 202 201 197
-177.269650 -948.573780 3397.229767 54 56 61
-193.024981 -1010.111141 3443.563461 13 12 18
-142.081225 -64.110523 3061.644936 104 106 107
289.908957 989.487076 1998.387527 184 189 187
-196.424675 791.298151 2887.867355 179 181 181
470.218325 1114.059448 1654.071236 40 44 49
-197.917879 761.317444 2900.664902 179 180 180
-194.640613 348.187852 3036.466980 174 176 176
4.955139 -1240.980434 3199.132919 145 129 111
686.195850 1028.590393 1324.247265 2 3 6
-190.667880 840.675735 2885.242653 180 181 179
-7.146244 -1189.833164 3216.053772 49 53 69
-175.190127 36.830726 3116.052628 127 139 147
283.733940 971.188736 2034.049416 237 239 230
-125.299513 -200.121331 3107.997322 35 42 65
-125.299513 -200.121331 3107.997322 35 42 65
-179.862845 360.756040 3026.852417 84 104 114
-178.175175 682.076597 2922.193909 98 117 127
-178.175175 682.076597 2922.193909 98 117 127
-154.971242 -962.430668 3405.793381 67 42 21
-147.498226 -949.691868 3395.270920 165 168 165
-144.423270 -948.090172 3390.491104 165 168 165
-144.423270 -948.090172 3390.491104 165 168 165
142.244017 955.589771 2292.128563 116 127 133
-169.533789 768.684959 2890.525246 81 109 122
19.428574 -1224.041653 3199.835205 145 139 135
-166.891730 806.971836 2880.199051 180 188 192
-170.803773 335.424781 3038.262939 175 183 189
-173.141730 761.196566 2908.584976 171 174 172
-173.141730 761.196566 2908.584976 171 174 172
-166.117370 348.103833 3031.707954 177 182 183
-167.574346 660.986328 2936.605453 173 177 177
229.954791 943.984985 2157.529640 29 31 31
289.646196 1189.449596 1976.821327 16 25 28
-160.407031 791.631985 2885.776138 182 183 181
289.405394 1188.982964 1984.222221 185 192 194
1573.051834 63.657326 410.045671 136 139 142
-144.614816 74.794525 3101.267433 160 168 166
-126.824236 -954.012585 3400.759506 139 138 133
-142.762434 52.454078 3107.242012 151 161 154
-142.762434 52.454078 3107.242012 151 161 154
290.733290 1193.862057 1985.558701 15 23 27
-147.551250 808.603954 2876.596832 85 111 122
-147.551250 808.603954 2876.596832 85 111 122
-151.095915 712.497711 2913.901329 71 100 121
-149.677420 645.869589 2936.915016 81 115 125
-151.615071 662.999153 2936.089325 182 184 181
-152.186239 746.705389 2911.445236 66 114 133
-112.436986 -82.082868 3108.810425 165 166 164
261.983109 948.032379 2122.238922 11 14 16
-134.976816 45.430231 3109.734154 12 18 42
-139.717829 777.588177 2886.614990 105 143 158
-124.285436 -1073.904896 3456.702805 53 52 31
-82.179797 -205.344892 3104.039001 155 157 157
-83.541662 -190.820765 3102.461624 156 161 166
-138.262272 465.205812 2991.497993 182 187 187
-85.152537 -198.612797 3114.142036 18 26 58
699.962902 1045.692635 1330.131912 23 28 27
287.434149 1195.387650 2009.613800 185 187 187
-124.407649 -979.226780 3439.197159 124 95 60
-130.816364 600.246334 2942.661095 177 188 191
-78.172714 -228.798723 3118.760300 95 98 98
-125.088084 -1052.137756 3467.258453 95 118 110
-84.095776 -100.409091 3089.069748 103 105 105
-135.060406 696.623564 2924.036217 178 181 179
293.945599 1201.051140 2004.870033 41 49 49
-116.712749 -1083.526611 3469.651413 33 43 29
-130.592346 552.453232 2967.050934 93 132 142
-129.917932 452.499962 3000.041771 175 180 179
702.654696 1047.809029 1332.035923 71 77 76
291.601300 1197.903824 2012.940025 26 34 36
289.224529 48.633304 2392.150688 14 18 48
-125.118780 674.924374 2925.746536 100 131 142
-115.948451 83.683747 3101.108360 35 44 77
-125.714552 471.401262 2993.070412 74 112 122
-125.714552 471.401262 2993.070412 74 112 122
-123.844552 364.393926 3027.626991 65 110 128
-120.614779 706.725836 2911.362267 92 120 130
289.251971 1196.187210 2024.422836 187 191 190
313.977098 -956.871319 2678.524017 104 118 116
-115.534484 511.843729 2967.132568 177 181 175
-120.940828 377.829027 3020.636940 54 103 124
-120.940828 377.829027 3020.636940 54 103 124
-122.888720 407.002401 3015.010452 65 108 127
-80.086535 -222.232342 3142.911911 88 92 97
-121.544349 345.074081 3034.084320 176 184 185
-120.902526 415.311670 3010.972023 172 185 185
-78.017586 -173.412120 3126.570702 143 145 150
-118.559849 650.937891 2932.769012 81 103 114
-111.601233 809.787941 2870.443916 81 118 131
-111.601233 809.787941 2870.443916 81 118 131
-114.763618 517.255688 2976.375961 58 90 102
-114.763618 517.255688 2976.375961 58 90 102
-107.600272 737.837934 2892.882919 97 127 139
-116.696310 646.741486 2939.913368 82 124 140
-99.771535 67.112190 3105.572510 24 32 65
-108.145225 365.328670 3026.873398 174 182 184
68.383586 -1190.689945 3218.103790 50 52 70
-93.173242 53.651816 3105.680275 152 164 160
-103.413033 777.550220 2889.983559 80 115 129
-103.413033 777.550220 2889.983559 80 115 129
-101.791954 603.763437 2948.650742 176 183 186
-99.222207 423.489237 3006.864929 180 181 181
-98.292762 614.576387 2945.224953 113 151 165
-94.506264 781.306744 2886.589813 85 116 126
-92.550498 695.122719 2912.175941 180 180 174
-92.550498 695.122719 2912.175941 180 180 174
600.747061 1082.133007 1533.170319 12 16 21
290.400267 1196.658325 2060.168266 189 190 189
-85.316551 792.325306 2874.832916 181 181 176
-78.345072 76.181591 3099.601746 156 168 169
-77.026016 38.633955 3112.994194 134 147 139
-82.450217 744.650078 2897.650528 176 186 187
-82.617480 468.218374 2989.783096 183 186 186
-84.690076 510.100174 2979.925346 64 84 90
-82.126868 491.298294 2983.529472 183 184 182
-70.114332 31.714937 3117.330170 15 22 36
-80.897361 441.540670 3002.420998 179 182 180
-80.897361 441.540670 3002.420998 179 182 180
-67.436236 90.349841 3094.019890 30 44 63
273.551273 938.140297 2192.688942 247 247 241
-76.055908 484.562492 2984.591866 70 104 115
-72.684216 398.536777 3009.010124 54 88 101
-31.271249 -151.413321 3117.565155 19 19 18
-73.741436 549.664545 2964.634514 34 84 103
-69.722915 539.351082 2960.904312 45 91 111
-74.790567 648.495245 2935.252380 79 119 130
-71.408683 374.829292 3019.308090 173 179 183
-74.583483 430.073881 3007.167816 59 99 113
-73.091346 715.555477 2910.464859 173 190 190
243.616366 872.545910 2277.187157 37 43 50
-74.553066 414.414930 3014.063644 176 183 179
-72.236508 445.675039 3000.358963 72 115 127
-70.273787 686.313915 2918.042564 74 107 117
-70.495474 327.983022 3037.703514 55 95 111
-70.495474 327.983022 3037.703514 55 95 111
271.921062 930.349731 2210.944557 51 55 57
-58.932006 38.144580 3115.168190 122 131 138
-58.932006 38.144580 3115.168190 122 131 138
718.048811 1050.429821 1350.522423 55 61 60
-68.738842 345.870733 3033.603668 177 182 176
609.204912 1083.089924 1541.514587 11 14 18
-56.260532 247.426486 3052.464676 54 56 57
-58.120406 715.673256 2901.176071 67 100 113
-67.768097 667.517757 2935.147667 180 181 176
-67.768097 667.517757 2935.147667 180 181 176
-62.624258 478.338671 2989.977837 162 180 186
245.745850 951.366997 2273.253632 48 50 57
-41.647699 39.761236 3118.001747 138 147 148
-44.766581 749.412251 2894.197655 46 89 103
-44.064924 679.984903 2916.094208 62 112 128
-46.981272 651.166868 2931.474495 173 189 192
-41.326272 278.145480 3046.396065 157 162 163
296.290803 1185.362816 2113.414001 30 34 36
766.026831 1027.316093 1287.894821 5 13 10
298.209929 1183.875561 2111.215401 30 34 36
413.602257 1176.084137 1898.602104 68 75 78
-1.479473 -83.530587 3098.041916 177 178 176
-40.249553 744.755983 2897.083664 63 114 131
-40.814605 734.807539 2901.971626 187 190 188
255.114222 731.601143 2348.039246 170 172 173
-37.369290 674.264479 2919.845390 66 108 126
-39.803764 616.783714 2947.268295 53 105 122
-25.495437 62.520021 3106.874466 153 157 169
-33.334887 651.730728 2926.802444 58 102 124
-24.531423 56.369203 3109.526634 153 164 166
-24.531423 56.369203 3109.526634 153 164 166
-847.914886 56.591946 4659.883118 159 169 164
256.110287 822.338581 2326.215744 122 127 126
298.072004 1182.624722 2135.422707 27 29 33
298.981643 1068.819904 2172.785187 78 78 73
-27.298465 676.209307 2924.029160 74 95 109
409.421349 -994.095707 2658.291435 155 149 123
-22.417028 768.389559 2887.874794 179 187 187
-27.676907 717.666769 2916.596413 83 127 141
-10.624361 77.477741 3100.792122 147 157 155
-10.624361 77.477741 3100.792122 147 157 155
-19.510545 438.731813 2997.665596 69 104 115
-19.510545 438.731813 2997.665596 69 104 115
-20.307077 663.441944 2926.125908 169 171 168
-226.806927 367.157745 3424.318695 126 160 170
-15.839382 328.759813 3035.226440 79 112 122
276.498032 692.474508 2357.171631 77 80 85
-13.841419 724.116516 2901.490211 184 187 181
-11.670215 806.808567 2872.542953 92 123 137
319.606328 1206.438732 2105.774498 16 19 27
295.373774 1171.560574 2165.811157 37 37 37
300.986171 1122.688580 2172.865105 21 21 22
-8.945008 703.253841 2907.593155 187 190 189
16.879334 -647.471046 3313.861465 181 205 207
-808.391762 39.817277 4665.195465 21 26 39
-9.602592 394.882679 3015.592003 175 186 189
33.201244 -88.846046 3097.614861 51 51 49
9.341495 -262.396097 3201.992416 133 194 202
16.353202 -575.925159 3296.455765 176 212 211
419.596386 1182.170963 1933.141899 47 56 59
15.962224 -346.046925 3225.825500 137 182 188
-4.773605 649.454546 2929.496002 72 111 127
22.361277 -623.856306 3308.233643 111 135 140
6.593778 40.668899 3115.320587 137 147 145
20.672856 -631.928110 3316.039658 171 203 206
6.140082 94.324970 3098.899651 172 178 170
6.140082 94.324970 3098.899651 172 178 170
306.460643 1182.355022 2154.484367 21 20 22
185.148966 -1249.805355 3211.568832 212 191 178
23.345129 -581.167078 3297.869492 86 119 124
0.685012 718.299437 2903.248024 75 108 119
291.069865 692.010069 2356.744385 101 106 110
188.938725 -1224.914837 3207.006073 149 136 128
28.239623 -481.453371 3266.088104 165 184 187
5.482358 680.677986 2917.180252 79 104 113
6.568315 616.054773 2939.599228 93 128 135
294.600010 758.923340 2333.597565 113 117 118
34.707126 -627.973557 3308.641434 72 122 126
34.707126 -627.973557 3308.641434 72 122 126
15.571603 48.738128 3115.984154 23 27 53
612.311506 52.142543 1959.654808 14 18 48
38.316250 -879.664898 3387.239456 86 123 129
34.980324 -622.610235 3313.603210 160 207 212
318.092012 948.539257 2229.630470 40 40 46
35.185972 -437.134838 3250.667572 82 116 121
57.732201 -171.495879 3118.129539 132 136 138
38.588166 -636.592054 3315.996552 161 213 215
22.873653 79.236299 3105.961037 170 178 172
259.821963 620.546961 2462.471008 67 100 113
44.718957 -730.816698 3341.825104 106 166 171
38.274455 -487.065172 3272.297287 154 207 210
37.480173 -432.748508 3257.026672 144 205 210
46.279761 -786.542892 3362.006378 155 214 219
36.296523 -247.510839 3198.476791 139 197 200
19.766396 437.980986 2999.586296 50 89 97
35.584390 -238.726044 3200.085068 70 105 112
35.584390 -238.726044 3200.085068 70 105 112
43.843871 -400.460291 3239.996338 165 199 204
210.169411 -1214.472485 3193.764114 157 150 139
32.147866 61.683613 3106.920052 19 23 31
33.407375 70.664173 3104.026794 29 36 68
301.743293 727.343512 2354.856873 27 35 79
301.743293 727.343512 2354.856873 27 35 79
22.881249 367.297196 3024.328995 175 182 181
25.813195 337.269258 3031.551170 91 116 124
24.192928 526.701164 2970.556450 174 178 173
25.934336 448.597288 2994.096375 58 85 90
349.076581 1214.489460 2098.570442 66 74 80
309.703064 890.586376 2286.809158 152 154 154
53.164154 -679.511309 3327.222443 180 209 214
55.770427 -831.222057 3374.505234 170 210 213
307.693362 829.884624 2312.579727 166 168 169
27.022812 714.286709 2903.997231 77 119 135
27.022812 714.286709 2903.997231 77 119 135
306.408429 910.010815 2289.439964 165 167 167
26.837549 513.455105 2974.305534 75 108 123
26.985919 379.315591 3019.976807 74 107 121
309.318233 731.800318 2345.713997 215 220 228
27.573034 682.508278 2916.268539 181 184 179
38.930154 57.599574 3108.068466 147 154 154
38.930154 57.599574 3108.068466 147 154 154
308.718419 864.838600 2301.745987 172 174 174
26.102263 360.402942 3030.347633 76 111 122
308.187866 902.599239 2290.908623 170 172 172
71.685034 -171.506524 3124.211502 123 125 125
28.690198 484.326935 2987.117767 86 107 119
30.680069 535.878658 2965.883064 40 83 93
29.870862 374.716687 3022.812462 71 110 124
31.999618 502.864408 2975.410461 73 115 129
33.731765 648.548651 2923.202324 42 83 102
30.186000 557.551718 2962.196541 45 87 100
31.038287 557.191133 2960.986900 45 87 100
34.701359 438.148594 2999.691582 50 87 94
46.513045 70.885468 3104.015350 29 35 66
311.111665 913.669300 2294.005203 51 56 58
37.980965 362.751842 3023.904610 168 180 181
336.673999 980.575466 2220.835304 48 54 55
44.472015 744.555521 2882.428741 73 100 108
312.377214 697.256279 2368.575096 152 158 163
41.821045 399.893618 3010.010147 159 178 184
361.771417 1219.915485 2098.445511 93 96 100
56.249690 78.578478 3099.194527 147 158 156
57.055575 42.235786 3111.350441 128 142 134
57.055575 42.235786 3111.350441 128 142 134
316.747332 924.650955 2294.092369 142 147 147
346.416759 993.912697 2212.240982 105 110 111
319.810629 923.208141 2289.996338 142 147 147
93.378812 -149.605918 3115.042877 170 170 170
97.294307 -139.563489 3107.390594 42 42 41
97.293615 -79.076993 3086.505508 179 177 176
58.486372 748.474884 2888.869286 176 185 189
61.801475 730.327082 2888.929558 182 182 177
61.801475 730.327082 2888.929558 182 182 177
57.038110 819.105434 2869.285774 55 89 104
57.987738 621.714020 2936.187935 175 181 180
57.987738 621.714020 2936.187935 175 181 180
309.412646 706.181526 2404.463768 123 129 138
2387.617111 -613.919830 -1306.650162 150 152 152
323.216057 788.885832 2354.129601 30 36 68
323.216057 788.885832 2354.129601 30 36 68
347.609925 996.067905 2233.873558 73 78 79
70.381790 161.975574 3085.935211 146 150 151
79.608822 120.874000 3087.394524 153 158 159
382.809639 1209.633064 2098.515129 39 42 47
334.746790 842.283344 2324.995804 12 14 15
82.432264 34.972939 3119.110107 14 21 38
382.755876 1224.607563 2095.320511 4 7 9
75.466114 747.773123 2887.988091 178 184 182
75.466114 747.773123 2887.988091 178 184 182
82.529694 88.232106 3104.045105 32 41 76
364.137769 946.652889 2233.979034 162 164 164
337.669659 890.258217 2310.022545 169 172 172
75.717634 621.198368 2937.570763 52 87 98
75.717634 621.198368 2937.570763 52 87 98
336.495113 812.357330 2340.397835 154 157 164
79.439467 679.224682 2917.299652 63 103 122
91.414249 42.729709 3117.155266 144 156 155
385.959363 1252.970505 2092.243004 108 112 112
390.133381 1221.983433 2095.965385 88 93 96
343.415689 892.689037 2312.177467 66 67 66
316.567135 741.506433 2424.204445 64 67 72
98.488909 72.801983 3107.467270 27 35 67
348.571873 841.388130 2325.112915 99 102 102
785.261917 41.581717 1712.769699 82 98 101
267.261887 -1183.138752 3209.090042 32 37 49
382.923913 1175.536346 2145.540237 90 92 93
379.650688 1089.534187 2183.492851 113 115 115
107.168090 65.377110 3107.815742 166 172 176
107.168090 65.377110 3107.815742 166 172 176
361.077476 765.185308 2337.801743 131 136 136
140.661490 -1047.091389 3431.517792 73 64 32
99.202788 650.462723 2919.989777 106 130 147
107.786286 59.933436 3110.717964 159 169 164
107.786286 59.933436 3110.717964 159 169 164
346.613693 790.421200 2361.306572 132 136 149
382.523799 1186.239338 2148.727608 20 22 30
99.150407 824.726582 2862.233734 184 186 182
101.615059 749.832153 2887.174416 55 102 124
103.125286 765.480566 2879.649544 175 181 176
103.125286 765.480566 2879.649544 175 181 176
103.303039 655.330992 2922.638512 50 86 100
391.533875 942.607880 2223.886490 159 160 159
100.708854 816.817093 2872.232437 90 121 136
100.708854 816.817093 2872.232437 90 121 136
116.568303 64.935791 3107.359123 12 16 34
358.948851 898.258591 2311.878014 180 182 182
137.796462 -1020.350170 3451.304626 112 129 122
128.615642 -1053.729057 3486.350632 69 55 23
391.372895 1027.168846 2202.550697 64 68 69
123.480940 80.921149 3099.826813 146 166 161
393.177986 1049.103165 2195.128250 74 79 78
170.584512 -201.285934 3106.809425 168 168 169
294.502974 -1249.128151 3220.930862 255 235 224
115.906239 607.218742 2936.380005 179 182 183
410.266352 1179.859066 2117.506409 147 157 160
410.266352 1179.859066 2117.506409 147 157 160
171.505976 -186.766589 3103.720665 162 168 178
367.496896 949.801922 2289.679909 144 147 151
810.903740 1040.204811 1331.215858 130 149 146
683.786345 53.649592 1950.179672 12 18 42
404.941177 1180.807400 2137.843513 13 13 19
122.724199 540.821218 2959.860420 179 184 181
134.296834 48.528191 3112.140274 21 26 39
84.931695 -749.610424 3501.085663 174 179 178
383.850551 747.947741 2339.864540 179 180 183
169.914985 -72.394949 3087.096405 98 102 109
405.463648 945.159626 2227.570152 164 166 166
141.923261 43.930715 3112.217140 142 149 146
140.366971 52.036041 3112.694359 148 157 155
131.100965 331.882811 3034.731293 23 69 85
131.100965 331.882811 3034.731293 23 69 85
126.348782 817.348099 2872.191238 82 113 127
132.906520 440.000868 2993.508720 72 103 114
134.264874 359.193277 3022.519112 32 90 103
134.264874 359.193277 3022.519112 32 90 103
134.711468 533.312321 2959.759140 174 182 184
135.088122 491.184330 2978.792953 172 178 174
304.750490 -1188.034248 3223.663330 106 119 116
170.443654 -183.287430 3150.144958 32 39 67
170.443654 -183.287430 3150.144958 32 39 67
149.873865 51.501620 3113.352966 26 31 62
135.527682 717.974377 2904.951096 97 131 140
149.120176 89.379501 3102.453613 37 44 73
140.071797 538.638878 2961.574364 57 96 108
415.689564 1114.485741 2167.534256 65 67 67
145.789433 751.696110 2880.644989 56 93 101
143.973207 706.423903 2903.203773 174 183 182
157.535577 80.995959 3103.812599 160 167 169
157.535577 80.995959 3103.812599 160 167 169
416.433048 949.616528 2236.108208 163 162 164
147.906172 748.481417 2884.055710 76 130 147
171.700895 -1081.824589 3494.878769 84 107 102
425.645208 1175.785065 2137.377167 48 52 57
439.736414 1198.049068 2100.796509 87 97 106
390.812087 954.706287 2293.862343 135 138 142
404.205608 215.376639 2532.619858 44 48 47
425.670576 985.993767 2211.600685 112 117 118
152.060497 815.177441 2863.741302 178 181 179
441.442823 1244.614697 2086.955643 104 109 110
427.288961 1113.356972 2165.617943 68 68 68
398.019361 958.206081 2287.453461 42 42 47
163.924634 111.771786 3099.085808 146 157 160
163.219595 705.780077 2895.518303 182 186 187
173.438990 60.424554 3108.098412 144 153 149
879.580212 43.514338 1587.854958 82 98 101
449.471140 1237.462425 2087.674904 13 13 14
403.816080 858.557701 2325.225449 66 69 70
432.431602 1159.711742 2155.796242 132 131 127
347.585440 -1231.042480 3210.223389 153 139 132
409.367180 955.620861 2281.508064 29 29 33
167.726707 619.734669 2929.708862 117 155 168
166.436827 642.156410 2924.668694 175 182 178
200.808597 -1007.103157 3453.763962 27 29 37
200.470805 -1008.417416 3455.084991 30 31 41
408.046484 902.203655 2307.632065 119 121 121
408.046484 902.203655 2307.632065 119 121 121
181.385994 74.033946 3103.944969 30 39 73
205.098367 -1018.668079 3451.992416 33 33 45
173.340940 624.300289 2929.304123 60 104 123
174.621034 765.697002 2875.115395 181 179 173
414.060116 957.060528 2283.147049 51 51 56
414.060116 957.060528 2283.147049 51 51 56
413.122368 873.403263 2318.061256 109 111 111
217.205596 -151.930130 3121.823883 165 167 168
180.850351 365.092373 3017.326736 172 175 178
190.779734 80.772394 3100.502586 166 174 171
176.758313 643.240738 2927.095413 176 183 181
181.772649 653.668690 2914.565659 56 110 131
180.850995 718.513203 2894.471359 102 137 156
456.686354 1182.378769 2123.087692 38 50 53
183.267772 522.143793 2968.077087 165 175 181
184.039044 445.898104 2994.517708 88 136 143
197.415435 89.665204 3097.903442 38 47 70
185.084331 646.903753 2920.632553 32 78 98
209.191060 -331.800723 3229.944992 160 172 182
214.199018 -505.746746 3285.085678 176 181 183
369.429374 -1254.966927 3219.982147 255 238 228
453.277683 1143.317413 2156.274605 80 78 77
453.277683 1143.317413 2156.274605 80 78 77
424.147511 885.370255 2315.776634 79 78 78
424.147511 885.370255 2315.776634 79 78 78
426.635075 863.936710 2320.589066 120 120 120
191.376221 654.156685 2920.133018 152 166 169
203.387117 254.367805 3048.033905 41 41 41
649.163723 83.691901 2120.153427 172 178 170
430.544615 898.315907 2305.782890 167 168 166
199.511373 631.652832 2919.958305 163 167 168
242.424703 -943.424129 3411.194992 169 173 168
242.424703 -943.424129 3411.194992 169 173 168
238.278484 -923.832798 3414.153290 39 46 63
242.324328 -77.079129 3096.412468 171 172 172
280.041695 -1057.376480 3375.122833 40 44 56
466.152668 976.535702 2213.976860 112 117 118
440.989065 954.345131 2287.570190 125 128 132
470.982075 989.715862 2209.907532 111 117 116
670.337391 1129.197788 1709.061432 104 112 112
226.852226 43.919623 3121.555901 141 152 150
480.461884 1186.533642 2124.687958 72 82 82
450.212622 818.028831 2331.790543 123 127 128
491.518593 1218.809986 2089.080620 14 16 21
270.786858 -58.173716 3067.605019 136 134 133
451.024771 957.694626 2280.122948 42 39 44
451.024771 957.694626 2280.122948 42 39 44
267.472315 -930.790997 3403.755951 151 156 160
267.472315 -930.790997 3403.755951 151 156 160
562.698698 70.404160 2360.052299 27 35 67
232.158422 53.171605 3118.919945 24 30 54
399.484253 -1197.607708 3210.570908 110 123 126
805.953693 1060.452366 1440.651989 17 22 26
270.832324 -953.593826 3416.380310 139 139 138
454.767179 902.997875 2303.525925 110 113 112
498.116827 1245.980358 2077.974319 98 103 108
242.013168 67.370856 3107.588577 159 171 165
498.437119 1207.691765 2096.010399 29 36 46
498.437119 1207.691765 2096.010399 29 36 46
807.588673 1060.724163 1443.780804 90 96 101
683.439970 1128.649044 1702.611160 40 47 50
419.487476 -1238.100815 3196.245956 136 120 116
485.505772 1135.704136 2154.234886 57 59 60
498.093843 1239.310646 2087.528610 30 36 44
404.983950 -1197.994232 3216.580200 46 54 65
404.983950 -1197.994232 3216.580200 46 54 65
483.896732 1117.282104 2168.213844 10 11 11
282.992029 -957.048130 3409.626770 24 23 36
319.729567 -1055.425358 3371.451569 28 32 38
464.432955 954.275131 2282.435799 121 123 124
251.814914 65.833098 3107.896423 16 20 50
263.139915 625.034714 2880.239868 23 27 28
324.288559 -1033.093739 3358.159256 23 23 35
466.380453 937.763405 2287.606812 150 155 154
283.699059 -947.723961 3421.247482 164 167 166
471.827602 779.164600 2336.480713 150 155 154
258.557606 490.270472 2946.665001 156 158 159
285.022831 -874.884415 3396.586227 7 10 22
289.318681 -872.350693 3388.010025 7 10 22
289.300895 -898.307323 3398.899460 136 140 146
258.258843 82.620728 3100.790215 158 169 170
510.991859 1190.526199 2097.511292 106 118 124
245.160317 754.092789 2880.601883 156 158 158
469.735670 871.956635 2317.430115 63 63 63
474.477768 919.560242 2292.306900 109 111 111
474.477768 919.560242 2292.306900 109 111 111
473.922777 842.799664 2322.766304 105 110 110
267.078638 53.288555 3109.317589 27 30 54
814.423943 1062.039375 1451.389885 147 153 156
593.867302 52.410400 2354.973984 21 26 39
593.867302 52.410400 2354.973984 21 26 39
484.475946 767.925644 2338.514328 122 124 124
520.978546 1183.041000 2096.557426 40 49 61
482.311440 836.378956 2322.322273 40 43 44
484.320927 957.563782 2273.426819 38 40 41
480.019426 899.689865 2306.979942 169 169 168
312.155437 -978.220844 3417.970657 24 23 37
322.067690 -988.889599 3399.006271 115 116 125
276.554441 46.211609 3114.436913 142 152 148
324.916935 -995.587063 3401.147461 34 35 41
505.762911 1191.495991 2143.743324 17 20 27
484.807587 892.085648 2308.038521 80 81 81
322.848010 -1021.267223 3426.774979 103 110 107
489.667606 932.919884 2288.908386 164 166 166
317.150974 -902.836132 3400.403214 84 86 87
489.420223 959.687805 2281.037903 39 38 42
320.070195 -958.436394 3422.803879 15 16 29
496.755838 817.878342 2326.717758 112 116 117
519.792175 1000.776291 2203.008080 99 103 104
530.821943 1188.723755 2104.687309 60 73 81
320.525002 -143.227053 3117.451286 38 39 39
325.092149 -1034.203625 3450.346756 26 26 30
495.230246 813.756084 2335.429764 106 112 115
324.060965 -978.861809 3440.250397 88 92 99
327.142358 -934.080791 3416.429520 167 170 180
324.276090 -65.609366 3089.942932 169 169 168
501.071262 833.868885 2321.128464 165 166 165
326.931214 -920.575142 3413.115692 177 181 179
500.455618 852.671719 2317.332077 167 169 167
332.519603 -59.430093 3070.793152 92 95 96
500.401545 869.080448 2311.404610 161 164 162
503.990221 793.168688 2333.844566 163 173 173
525.571012 947.735119 2224.656487 176 176 176
300.834417 114.087009 3089.171219 139 147 147
300.376797 77.696598 3105.301857 15 24 44
323.843431 -975.592995 3458.442688 17 19 28
302.884245 66.942197 3106.113434 13 17 42
991.421986 61.273122 1457.323074 14 16 34
504.287338 919.719219 2293.018341 147 149 149
731.122303 1120.793056 1674.505806 32 37 40
332.930994 -76.956284 3098.604584 170 171 169
341.677618 -945.339775 3414.859009 49 55 67
514.250374 946.539974 2266.937447 129 130 134
467.688894 -1271.138763 3239.308929 39 27 39
515.262318 847.775078 2305.755806 106 106 105
342.737007 -1054.254436 3460.367966 45 46 37
345.546484 -48.910373 3064.476776 145 149 151
345.097160 -164.776146 3121.445465 143 145 146
522.568750 762.945652 2330.809593 141 146 147
536.793613 1164.969254 2140.333939 79 80 80
537.621546 1185.525227 2131.813431 47 51 57
536.033392 1161.724472 2145.943260 120 120 120
536.033392 1161.724472 2145.943260 120 120 120
350.026035 -934.180260 3415.755463 172 177 175
831.548977 1066.369915 1466.862011 147 154 157
353.645563 -946.026802 3416.503143 165 170 169
317.227578 29.538533 3125.041199 85 106 104
346.919155 -853.080273 3401.770782 160 167 170
542.503071 1010.427189 2198.328972 45 50 49
521.201038 942.998314 2277.566719 148 151 153
356.101751 -63.192850 3078.121758 165 166 164
356.101751 -63.192850 3078.121758 165 166 164
359.236050 -31.713769 3060.091591 153 158 159
640.056133 -1079.944324 2787.690735 255 243 235
508.968401 -1286.386108 3185.770035 253 233 222
508.968401 -1286.386108 3185.770035 253 233 222
546.692610 1024.872208 2190.857887 63 65 65
328.880334 46.206227 3111.885452 136 148 141
328.880334 46.206227 3111.885452 136 148 141
836.138248 1069.647694 1469.317341 9 12 13
367.349291 -935.051060 3416.666031 20 21 36
334.193230 92.239332 3095.775986 32 39 63
334.193230 92.239332 3095.775986 32 39 63
534.257746 956.224155 2263.057709 136 136 138
370.622444 -948.105621 3420.367813 42 46 63
368.708897 -866.712666 3398.852539 157 163 169
369.318414 -881.195736 3403.166580 158 162 169
366.724420 -685.804605 3342.478180 171 174 178
370.717692 -875.451660 3408.359528 25 28 37
363.335323 -515.009117 3287.392807 185 187 188
368.692803 -987.166882 3460.728073 28 30 41
363.738251 -503.677273 3284.839630 179 184 185
343.941116 99.074304 3098.724937 172 179 175
376.133037 -946.126938 3433.652496 147 153 157
568.663454 1227.270603 2093.187523 110 114 116
517.649269 -1229.997635 3194.502258 93 108 112
565.479517 1184.722614 2120.028687 172 185 190
569.797325 1252.436352 2083.541107 44 45 50
522.868156 -1224.840260 3182.984543 93 108 112
887.787628 1052.314186 1369.979382 82 139 128
387.894249 -219.667268 3125.379372 99 103 104
541.822767 878.117847 2304.736328 99 101 101
374.643469 -936.031723 3444.808960 151 155 159
845.666695 1067.403984 1472.942162 9 13 14
352.697277 95.815223 3095.079422 19 25 39
562.012148 1103.671265 2170.597458 73 72 68
348.466754 174.177969 3081.063461 165 170 169
576.331091 1224.108505 2091.907310 29 35 40
580.971622 1184.393597 2096.682930 48 61 71
371.020555 -687.991142 3376.707077 87 101 107
396.549940 -213.893580 3126.457405 139 143 144
387.840915 -992.682648 3461.335373 113 129 129
779.759598 1108.647537 1632.946396 107 114 117
359.487629 102.764809 3095.865631 167 174 171
393.930459 -906.124306 3411.607742 60 59 49
581.460571 1212.077141 2093.525887 32 38 45
581.460571 1212.077141 2093.525887 32 38 45
374.903774 -964.007187 3485.146332 26 24 32
369.403148 -1058.502769 3536.588669 82 98 96
360.605621 85.345554 3103.235245 139 148 148
431.957245 -1179.705906 3428.687286 50 71 62
584.504366 1182.020855 2100.064278 186 199 207
359.459352 95.458114 3109.140205 29 38 60
359.459352 95.458114 3109.140205 29 38 60
555.951786 794.828081 2332.534218 83 88 87
573.054123 1120.973969 2158.869553 194 192 191
403.157806 680.316544 2792.414284 25 28 29
551.405478 932.072544 2291.976357 157 162 160
446.570826 -377.387190 3113.573456 22 26 32
400.113440 -184.950280 3126.549911 166 162 158
362.303519 -321.426821 3278.337479 22 26 32
560.187006 742.559862 2348.866653 71 77 78
370.732927 -673.222780 3400.610352 118 129 133
363.205457 90.222198 3116.730499 127 140 138
352.325845 785.126400 2865.300179 25 28 29
364.434195 82.563257 3121.235085 17 24 42
562.932825 776.497126 2341.079712 136 142 140
581.779194 949.139977 2224.633408 192 194 195
361.352205 93.531549 3134.522438 112 127 123
354.858112 166.422486 3125.367928 122 135 137
558.869028 915.611839 2301.990509 105 107 106
360.357618 122.916245 3135.602570 56 73 74
348.036695 639.875555 2965.758896 8 9 30
348.036695 639.875555 2965.758896 8 9 30
579.591942 -1310.085011 3158.388329 251 227 215
600.686884 1247.092056 2078.406906 102 107 110
421.111870 -1022.463799 3465.026474 99 107 114
583.519888 1123.926163 2177.192879 73 71 70
416.019630 -59.206426 3095.265770 177 178 178
431.618786 -838.864708 3378.978348 24 20 26
417.490435 -25.989076 3087.588692 134 139 149
371.603107 110.288954 3151.771545 9 13 25
569.308424 956.917000 2294.049835 138 143 146
369.275713 127.790534 3157.817268 53 70 72
602.960968 1240.157318 2098.941231 15 18 19
594.014072 965.181541 2236.225128 38 43 44
424.650526 -1003.927231 3502.053452 12 12 20
577.250385 965.992165 2294.304085 147 150 150
575.871944 921.480083 2316.819000 205 210 211
415.485001 -75.196248 3152.155876 138 144 151
915.455055 1050.509739 1369.418144 39 92 80
413.314819 -690.264273 3414.469910 139 146 141
577.977800 836.539745 2353.129005 106 117 119
420.871019 -127.831709 3170.204735 96 108 124
577.659845 927.436924 2320.784187 82 87 90
384.652042 90.458256 3179.698753 101 110 116
384.652042 90.458256 3179.698753 101 110 116
578.639841 871.114445 2343.374634 131 138 139
421.598387 -45.438355 3140.681458 155 156 162
425.342703 -56.348884 3140.629387 147 150 154
582.900572 833.795834 2354.727745 67 76 79
582.900572 833.795834 2354.727745 67 76 79
602.582884 959.760284 2251.630974 33 35 36
617.132425 1204.891396 2115.168762 37 43 51
424.847841 -144.358873 3187.869835 40 46 61
474.674273 -860.142803 3352.637100 94 94 72
621.855068 -1338.310814 3157.814407 171 133 110
621.855068 -1338.310814 3157.814407 171 133 110
621.582508 -1337.771511 3158.355522 171 133 110
581.301975 967.316055 2311.922836 56 60 66
615.106916 1233.923626 2111.868095 94 102 105
582.626915 795.663691 2381.912231 117 130 127
427.293015 -123.979342 3179.063416 13 13 24
391.892195 54.889983 3203.171158 68 87 89
478.043652 -845.265770 3350.723267 14 14 15
429.330969 -65.904409 3160.495186 45 48 49
394.138098 72.196931 3198.539734 88 104 102
431.067705 -36.448729 3145.813751 85 89 102
394.872332 108.372724 3186.398125 105 119 116
442.003822 -108.496535 3154.205704 56 58 58
619.928455 1220.514011 2121.380997 24 28 34
606.449604 1128.727436 2196.865845 78 79 78
484.369659 -838.404751 3346.202850 128 127 125
481.345606 -858.600044 3364.801407 28 26 15
588.740253 853.277302 2361.698914 40 47 50
489.618969 -836.657429 3349.677277 114 115 105
595.399714 830.227089 2365.573311 67 78 81
490.276003 -856.369972 3365.608597 124 126 108
616.035843 972.061825 2257.673645 60 66 66
592.498493 798.616552 2396.730614 110 124 120
440.500879 -62.958586 3174.889755 56 61 60
492.202091 -874.584579 3377.437592 195 198 178
477.859545 -802.997494 3391.205597 89 106 108
409.082985 75.350058 3210.313797 89 105 107
1578.531075 59.692770 427.085638 90 96 101
594.544649 871.633530 2368.659592 118 121 119
603.205872 782.981205 2394.457436 43 47 48
649.412251 -1374.744987 3182.501984 154 113 106
617.721748 1197.284985 2188.258743 118 124 127
634.928179 1211.016464 2137.012672 29 38 47
601.209450 972.045231 2333.227158 53 56 64
662.819529 -1367.268181 3160.262489 254 235 224
487.777996 -752.706957 3394.503021 19 28 35
422.196722 79.285163 3223.664474 91 102 105
423.494959 116.461325 3210.919952 110 120 120
423.494959 116.461325 3210.919952 110 120 120
420.409632 187.597132 3194.273186 132 143 146
627.023411 1077.586079 2239.825249 123 123 122
626.047277 1201.494122 2192.175865 116 122 126
610.517216 972.875977 2337.440491 54 57 65
609.054565 931.544495 2362.112808 132 138 141
664.911366 -1314.465523 3167.365837 52 43 56
532.124376 -847.290611 3342.023087 200 195 168
290.164423 -1072.462940 4118.307114 209 194 166
621.160603 972.488213 2313.504601 132 134 135
642.023182 1241.445827 2141.195679 105 114 118
433.282042 103.825152 3226.935959 104 117 117
649.957752 1214.810562 2147.942543 86 97 106
641.519356 974.891281 2276.419830 101 105 110
647.022104 1255.343056 2140.234756 42 52 59
639.357281 1005.559540 2269.979095 92 97 100
484.851742 -691.023207 3446.421051 90 105 102
552.161980 -828.176689 3326.554108 22 15 16
437.866831 147.847664 3232.976532 61 74 76
442.617226 100.854635 3241.259384 95 107 106
554.119873 -839.266205 3329.649734 111 115 100
638.529873 1211.853600 2199.478722 155 164 173
937.353420 1061.710358 1411.258125 101 156 138
557.750320 -821.933174 3328.340530 18 14 23
692.393780 -1358.421993 3177.455521 145 109 105
692.393780 -1358.421993 3177.455521 145 109 105
487.766504 -116.900456 3229.708099 138 140 148
558.997250 -847.140026 3344.524384 94 101 84
940.018082 1062.632370 1413.371181 1 28 28
491.068172 -665.514231 3471.781540 108 111 119
657.488632 1236.097336 2158.639336 23 26 30
484.303379 -48.825577 3223.011017 56 58 58
495.693493 -727.523422 3487.602234 83 96 95
563.332367 -839.659214 3343.305588 25 22 15
485.422277 -480.960703 3417.396927 164 168 170
698.294210 -1347.009182 3180.970001 254 230 218
485.956335 -470.350218 3416.485596 150 153 158
494.109774 -106.973970 3236.156845 28 26 31
