ply
            format ascii 1.0
            element vertex 39727
            property float x
            property float y
            property float z
            property uchar blue
            property uchar green
            property uchar red
            end_header
-1292.903042 1257.633781 3378.583145 97 97 98
-1281.806374 1350.648689 3329.706955 21 32 29
-1293.978024 1118.634510 3377.857590 8 9 9
-1281.586742 1323.831558 3338.736725 55 60 60
-1290.896606 1196.285343 3386.152649 11 12 10
-1294.661140 1110.751438 3414.178848 15 12 13
-1291.001320 1119.588947 3396.188354 128 126 125
-1277.673531 1301.938343 3354.742050 77 84 79
-1301.606655 1052.013874 3495.610809 39 37 41
-1284.854317 1184.766102 3392.053604 118 119 115
-1284.854317 1184.766102 3392.053604 118 119 115
-1268.460655 1356.379700 3302.892685 7 29 23
-1286.228180 1122.486973 3388.833618 130 128 128
-1226.614857 -768.234396 2086.229897 127 125 111
-1280.441380 1246.452045 3390.325165 12 12 12
-1275.337315 1263.379669 3362.829208 6 5 7
-1267.593384 1346.760464 3354.630280 22 24 24
-1280.297375 1191.980267 3433.810043 20 23 18
-1258.539295 1390.764999 3310.901642 77 184 151
-1261.653996 1342.946053 3326.596451 90 96 95
-1259.497261 -966.685867 2372.342300 75 96 81
-1276.761627 1114.668465 3402.671814 144 141 138
-1264.540386 1274.275970 3347.972870 5 6 7
-1281.808281 1086.697388 3442.691422 118 114 115
-1264.319801 1289.632130 3359.056854 14 14 15
-1264.319801 1289.632130 3359.056854 14 14 15
-1219.373035 -767.041731 2082.532501 137 133 107
-1267.922688 1245.842552 3385.443115 21 23 24
-1264.357758 1271.292019 3368.297577 117 115 113
-1258.386040 1325.894356 3339.854813 10 14 14
-1271.586704 1210.127449 3424.049759 5 5 3
-1271.599483 1202.888203 3431.302643 83 82 78
-1270.060062 1217.621708 3424.293518 49 50 48
-1254.064560 1312.921906 3354.792404 81 84 83
-1257.606125 1248.717785 3385.915375 128 132 130
-1250.854492 1329.800129 3353.849411 15 17 18
-1267.155361 1066.775322 3457.266617 33 26 23
-1213.288784 -734.822845 2135.572243 173 162 157
-1256.841278 1197.256470 3433.424759 14 12 12
-1246.441364 1309.940624 3376.013565 140 143 141
-1247.624207 1286.570549 3387.974930 26 28 28
-1245.589542 1295.352077 3380.091858 113 116 115
-1263.467121 1047.906303 3467.038727 13 7 8
-1238.887405 1344.689941 3340.399170 92 97 96
-1238.887405 1344.689941 3340.399170 92 97 96
-1258.192539 1105.232525 3443.535995 10 7 9
-1238.638783 1330.847168 3364.792252 136 138 138
-1247.938347 1186.335278 3440.890884 12 12 12
-1235.768127 1307.179546 3371.970749 17 18 16
-1246.097851 1194.082260 3438.535309 119 119 121
-1239.359474 1230.773354 3387.731552 14 11 13
-963.829517 -269.041705 438.410759 128 160 150
-1243.545914 1205.764103 3423.818588 134 133 135
-1238.768673 1284.437084 3408.364487 124 129 130
-1238.768673 1284.437084 3408.364487 124 129 130
-1228.864956 1377.788258 3345.853424 5 19 14
-1237.978172 1283.984566 3404.472733 124 129 130
-1225.137997 1373.511696 3318.644714 106 191 157
-1228.065968 1355.186176 3345.420837 28 36 36
-1242.512894 1175.228691 3460.163498 16 14 16
-1246.685791 1089.740372 3478.067398 158 153 154
-1231.141376 1287.928104 3426.383972 26 30 33
-1225.310421 1355.542755 3397.920990 118 189 161
-1230.044842 1232.208538 3392.679596 142 139 141
-1241.718578 1102.276421 3460.728836 51 46 48
-1238.054085 1185.727024 3479.753876 23 21 22
-1229.428768 1286.119080 3441.554642 114 118 119
-1229.428768 1286.119080 3441.554642 114 118 119
-1230.706215 1209.846306 3430.435944 34 31 33
-1070.267105 794.928169 1460.310555 4 8 12
-1217.364311 1313.644505 3382.173157 33 32 30
-1232.152271 1136.119652 3482.705307 32 26 27
-1226.708984 1206.721306 3459.568405 148 145 147
-1221.814442 1291.096592 3459.797287 17 19 23
-1219.339371 1305.098915 3449.158859 44 53 56
-1221.540165 1137.930679 3484.693527 93 85 85
-1218.618870 1126.291084 3502.991486 13 8 10
-1193.278217 -402.489710 2411.335373 156 139 118
-1214.699554 1136.997795 3506.572342 25 19 21
-1210.459423 1112.492943 3502.942276 139 134 132
-1205.058765 1113.332558 3521.327972 17 12 11
-1205.058765 1113.332558 3521.327972 17 12 11
-1199.880695 1164.876652 3490.818787 12 7 8
-1194.696426 1261.214924 3493.178558 89 88 84
-1188.527966 1264.316273 3509.963608 118 118 114
-1184.738541 1275.561810 3494.794464 121 120 117
-1178.668213 1289.017200 3480.174255 26 32 33
-1180.904865 1149.102592 3554.514313 14 9 10
-1175.314045 1155.088997 3486.705780 14 9 10
-1159.395218 -453.533220 2309.560776 252 233 220
-1168.229675 1145.787334 3545.931244 167 162 162
-1161.140347 1147.097778 3529.375839 138 133 133
-1157.098961 1172.539616 3511.513901 11 7 9
-1154.899693 1162.954330 3524.190521 154 148 149
-1116.184521 -779.373312 1622.712135 38 26 27
-1141.570473 1160.471916 3540.862274 188 184 183
-1140.153790 -459.874678 2305.825424 140 135 118
-1138.271236 -465.823650 2302.329445 49 53 42
-1034.259033 859.860325 1676.223946 201 208 211
-1133.497429 1171.719551 3556.722641 19 19 18
-1125.815296 1184.117508 3571.935272 102 107 105
-1104.999352 -788.595057 1616.987419 235 223 216
-1102.392292 -782.919502 1618.928146 245 224 223
-1085.814476 1576.463318 4005.798721 68 164 129
-1085.814476 1576.463318 4005.798721 68 164 129
-1102.186584 -451.630878 2299.091911 125 126 111
-1067.096615 1563.584518 3962.582779 80 175 138
-1092.227840 -446.529436 2294.289398 161 144 116
-1092.227840 -446.529436 2294.289398 161 144 116
-1016.119766 1599.827480 4047.711945 9 87 57
-922.798729 143.171990 485.276461 13 33 26
-934.759617 391.923451 3644.472885 250 230 215
-923.245430 900.696468 1796.363640 74 78 79
-903.090477 867.634392 1790.497780 62 66 69
-990.164089 -713.201761 1408.720398 133 111 96
-901.057339 758.628416 1347.956944 72 78 83
-970.850563 -656.388617 2027.323723 134 95 79
-966.569996 -658.011532 2029.372406 249 230 217
-981.026554 -953.429413 1922.467422 62 76 56
-960.072994 -699.677324 2057.951927 219 216 193
-975.018978 -397.497058 775.081253 241 236 225
-861.853504 889.902306 1772.517014 67 70 71
-846.698475 896.352482 1792.065620 102 106 111
-958.956623 -1017.396832 2050.297737 204 185 169
-955.660629 -1000.995350 2075.609589 186 163 144
-837.726307 891.421795 1810.849380 165 166 164
-968.619537 -729.293966 1451.929379 219 213 201
-930.343628 -373.323059 1025.706768 71 60 44
-830.192184 742.219305 1290.027523 105 113 120
-757.014322 834.352398 2142.277908 200 206 201
-750.012302 903.219128 1807.545853 7 9 12
-726.479101 819.982433 2140.854454 120 126 125
-742.725277 903.194714 1812.553787 20 21 22
-796.182632 732.491064 1256.982422 96 103 111
-735.127592 892.200756 1809.476662 114 119 114
-730.667496 903.093147 1812.393379 12 12 11
-840.815544 -661.188507 1859.806442 144 107 96
-705.518675 899.386501 1813.502121 161 160 155
-390.241098 172.956502 5568.621063 250 232 216
-416.840982 39.219561 5361.653900 176 168 157
-348.036528 230.009913 5580.966949 247 230 219
-349.907184 148.465061 5494.691467 244 235 227
-348.152256 136.337316 5471.882629 106 89 91
-689.182854 728.226805 1867.214584 162 164 159
-337.077618 100.515497 5430.543518 154 137 130
-337.077618 100.515497 5430.543518 154 137 130
-308.126426 122.199750 5491.198730 251 234 222
-308.126426 122.199750 5491.198730 251 234 222
-639.670801 748.356152 1861.403084 152 155 149
-195.256126 262.076259 5414.123917 143 156 144
-650.454664 851.695442 1645.951653 21 21 26
-161.544800 286.264396 5474.479675 250 236 222
-149.923515 290.685558 5416.529465 145 134 133
-712.857723 711.200190 1175.502300 91 105 116
-629.628944 853.603935 1623.510933 22 29 32
-697.712040 -666.714382 1992.073631 228 215 200
-674.588490 -673.840380 1996.052933 46 52 33
-663.696289 -672.136784 1990.170479 76 78 65
-592.370272 817.099667 1612.768936 98 102 104
-589.557791 822.919273 1601.584244 33 36 40
-577.749777 781.930017 1642.927742 45 48 49
-577.749777 781.930017 1642.927742 45 48 49
-678.210068 -727.267694 1830.519867 85 86 75
-576.553535 815.993214 1605.128670 77 83 88
-574.816370 814.257050 1589.035988 29 32 37
-574.013281 832.546997 1583.066463 18 19 19
-564.418077 555.563545 1772.432327 91 100 97
-668.777275 -718.091631 1837.504387 170 171 166
-560.345411 583.083916 1760.113335 81 87 87
-559.454441 606.357288 1752.443314 90 95 96
-559.336615 548.986864 1772.772408 145 153 152
-559.645605 539.114857 1774.860764 141 149 149
-558.459520 571.330118 1764.056969 86 92 91
-557.746172 543.295717 1775.745964 122 130 129
-553.276968 554.176426 1773.467445 70 76 75
-638.062096 757.417107 1213.926506 91 106 112
-556.161928 772.595549 1626.138878 41 46 45
-559.141493 836.308098 1571.170235 83 92 97
-545.323610 591.695356 1751.965141 23 31 30
-546.217394 531.573200 1768.004799 134 141 142
-537.612820 510.796404 1795.732689 94 98 101
-537.612820 510.796404 1795.732689 94 98 101
-645.656872 -721.444368 1827.983475 254 237 224
-536.547375 580.098295 1745.143318 32 39 39
-535.817814 556.886053 1759.029388 147 163 161
-532.950544 664.757156 1716.075516 76 82 83
-342.875314 768.250513 2619.561768 200 204 209
-342.875314 768.250513 2619.561768 200 204 209
-531.193638 630.142832 1718.844414 142 149 149
-539.123774 807.209396 1591.678143 27 29 30
-534.005737 807.925606 1581.831264 81 87 90
-315.150023 782.105398 2636.331558 112 120 130
-316.073966 779.010534 2627.817345 112 120 130
-528.660440 808.137321 1546.780300 73 80 83
-519.807243 650.549173 1647.711372 62 70 70
-521.010876 662.734413 1636.004257 48 56 56
-520.378780 760.946751 1589.166737 59 64 63
-524.031591 815.891171 1545.221996 18 22 29
-503.843689 617.951727 1698.643875 139 147 146
-503.843689 617.951727 1698.643875 139 147 146
-514.362478 823.322296 1534.914112 10 14 20
-514.362478 823.322296 1534.914112 10 14 20
-514.711285 802.407551 1541.940022 16 20 25
-513.391685 811.363029 1536.518669 55 58 66
-493.617201 798.555088 1555.444241 29 32 37
-322.072148 -656.971502 2914.064407 162 158 152
-494.080591 807.449532 1522.545719 36 42 47
-489.619303 796.941042 1543.215275 107 113 118
-493.067884 811.433411 1515.682220 79 88 91
-313.587165 -662.532425 2908.615494 141 141 132
-485.896206 648.022842 1607.016945 94 102 101
-478.131247 795.398521 1542.119503 26 31 34
-463.853025 603.169346 1674.870491 76 82 81
-475.731134 642.257214 1603.921509 90 98 97
-597.009611 -726.714420 1682.070160 185 144 124
-475.899601 799.054241 1502.431011 14 15 19
-474.303770 827.964878 1493.549442 88 98 98
-464.407635 795.790815 1537.089825 43 50 53
-464.165640 745.737267 1554.416943 61 66 65
-448.286724 614.330387 1647.910500 107 115 114
-445.356131 600.239563 1653.019905 152 159 159
-455.161953 639.647245 1585.389423 39 45 44
-450.530052 738.462973 1549.706650 98 103 101
-451.340961 741.630459 1542.481041 51 54 54
-457.168531 797.989082 1492.155743 51 58 61
-432.751989 621.311522 1632.050323 99 107 107
-447.848988 787.060881 1503.845882 108 115 115
-282.502127 -38.779983 2434.947205 255 244 226
-426.706934 553.833151 1650.052452 132 142 142
-254.420805 -409.704447 2666.340065 101 112 106
-442.862082 810.190201 1470.751667 68 74 79
-439.699221 803.805733 1472.561264 9 12 16
-439.201546 800.829411 1473.655033 12 15 19
-239.397240 -413.123894 2652.982140 115 133 132
-332.983494 -490.998268 2339.070511 30 40 51
-332.983494 -490.998268 2339.070511 30 40 51
-424.632692 777.736855 1505.127144 103 108 107
-422.833443 740.835142 1515.493679 52 55 55
-421.269131 803.500843 1456.871033 90 101 105
-226.156640 -424.516535 2599.248695 13 20 29
-186.438417 97.783548 2491.841888 109 121 130
-394.069242 483.213854 1633.988571 123 130 127
-389.999342 622.552299 1586.223507 114 119 120
-227.236891 -438.875723 2535.944748 10 22 26
-408.271551 780.727911 1454.886150 29 36 41
-386.849928 620.388031 1586.589336 44 49 50
-215.111136 -408.633614 2555.930328 32 34 41
-385.373712 605.800581 1591.333580 49 55 56
-383.508110 614.220810 1589.296913 117 125 125
-222.311759 -442.319393 2532.270050 78 99 97
-383.336258 557.634354 1607.766342 30 36 35
-385.817385 468.976355 1630.648422 73 66 39
-383.445907 466.548681 1635.785675 136 144 141
-396.255398 759.223366 1481.719971 100 104 102
-394.590068 618.940401 1539.531231 43 48 47
-395.181823 731.904507 1494.279480 99 104 103
-382.291365 480.926418 1630.119896 147 152 151
-398.385286 767.309046 1465.703011 50 54 55
-398.578596 774.665880 1462.160206 69 78 81
-401.403761 808.591938 1439.638805 16 15 17
-378.647161 514.281750 1624.059486 28 27 18
-379.003763 494.727325 1626.427269 19 26 27
-234.821939 72.357678 2261.627579 128 142 144
-374.142432 507.981396 1629.629135 14 9 10
-389.859629 627.193260 1532.615471 98 104 103
-201.023340 -399.348521 2543.801498 25 27 34
-207.203245 110.116279 2324.525070 169 181 175
-204.958439 102.158785 2320.148087 46 59 76
-369.377017 554.244471 1605.468178 17 24 24
-329.486918 -533.194590 2142.814064 98 111 112
-367.354107 518.800545 1620.671844 165 133 69
-392.556763 801.321125 1432.783604 53 62 66
-195.608354 -407.034874 2525.327873 74 79 82
-381.584978 731.842995 1483.603477 14 16 19
-389.271355 803.034687 1430.631161 79 90 94
-380.109930 727.228832 1486.734104 21 25 28
-313.170910 -527.670717 2155.815125 36 55 56
-227.836847 91.726804 2200.189400 169 181 175
-227.836847 91.726804 2200.189400 169 181 175
-384.407306 770.790005 1438.613510 43 49 55
-384.407306 770.790005 1438.613510 43 49 55
-318.375778 -542.435074 2133.330154 168 174 174
-225.861883 83.913398 2195.075035 46 59 76
-313.760996 -546.690035 2136.880302 157 162 160
-372.632408 630.833960 1514.857006 89 96 92
-523.724747 -679.331636 1507.662296 189 156 130
-523.724747 -679.331636 1507.662296 189 156 130
-310.558605 -558.124971 2134.405518 29 32 50
-301.352334 -553.466749 2158.740044 83 98 99
-519.397926 -688.360023 1504.792976 243 236 225
-519.397926 -688.360023 1504.792976 243 236 225
-522.207069 -696.499777 1495.070553 250 241 230
-371.967793 783.642626 1420.715237 21 24 29
-282.740641 -531.054688 2168.578529 146 158 155
-512.586975 -683.556223 1503.715801 253 242 228
-514.527369 -690.819693 1498.954582 252 243 227
-187.869787 -317.182231 2347.597504 31 53 58
-352.128053 721.954870 1465.521145 61 66 62
-217.157865 63.477814 2095.737076 153 164 161
-346.537566 607.790804 1506.434631 125 126 126
-214.399457 -510.285664 2304.130173 33 39 46
-346.573877 609.557438 1500.716686 44 48 48
-264.572811 -557.045221 2163.491821 47 53 72
-214.314532 68.801808 2084.999657 145 157 157
-228.151608 -45.855659 2081.236458 104 109 112
-212.325215 47.432479 2088.598442 137 150 142
-211.290741 -529.041672 2293.264008 105 125 123
-259.604549 -592.561054 2171.029663 34 34 27
-209.585690 24.861589 2097.575760 118 130 130
-346.070671 763.457441 1417.488766 98 103 106
-207.700634 -127.481627 2137.735558 26 32 54
-337.179565 615.639400 1490.569687 55 61 60
-338.229585 768.377638 1429.452801 110 115 118
-200.743103 -505.566788 2283.936501 87 111 108
-336.051369 759.484959 1435.442162 93 98 97
-475.190258 -767.046404 1565.740013 130 122 94
-333.552027 617.718172 1486.050034 99 105 103
-335.107303 715.323210 1446.497726 51 56 57
-473.452759 -773.761606 1563.247108 124 116 97
-361.612391 761.298800 1344.865227 49 54 55
-316.863322 609.512234 1523.761368 69 73 76
-189.083302 50.512809 2089.586830 149 155 151
-198.462427 -78.051174 2105.673981 52 58 59
-469.240856 -776.659393 1560.014725 156 138 112
-469.240856 -776.659393 1560.014725 156 138 112
-183.510911 46.202198 2091.470909 15 21 32
-183.510911 46.202198 2091.470909 15 21 32
-326.352096 622.698498 1477.215958 53 59 58
-326.352096 622.698498 1477.215958 53 59 58
-335.336828 757.274914 1401.585102 103 110 113
-180.077779 -475.766468 2275.316429 26 31 39
-179.279363 41.491553 2093.057632 138 149 150
-322.794080 619.865894 1475.008202 103 109 108
-190.360308 -60.679960 2089.017487 133 139 139
-475.038290 -924.113941 1577.449036 248 234 213
-208.086371 -553.747320 2208.975983 101 120 118
-275.694776 -910.855865 2127.097130 253 229 214
-328.735089 768.092871 1390.410328 68 76 83
-300.717187 583.928013 1528.832722 97 104 105
-162.516499 -454.857874 2276.698875 113 128 132
-364.149785 753.841400 1287.660980 91 95 96
-315.105605 719.038534 1434.200191 51 56 55
-315.493107 760.247374 1416.457176 21 24 28
-198.869050 -593.318272 2188.245010 89 92 67
-420.480108 -665.436745 1685.477829 253 228 214
-456.304789 -927.891541 1571.691132 142 137 125
-312.468553 782.975674 1372.461033 12 16 22
-284.958911 466.947746 1546.551514 151 156 157
-151.975334 -536.185598 2243.979263 26 37 43
-305.972481 755.350399 1386.015892 59 65 70
-249.030614 -882.814980 2091.921997 50 44 62
-295.740366 759.200001 1403.157711 16 19 23
-241.558075 -858.286667 2094.515991 56 60 78
-251.549125 -951.160526 2090.282059 159 112 97
-251.549125 -951.160526 2090.282059 159 112 97
-290.903783 609.102297 1455.238533 81 88 86
-273.779035 604.664040 1499.026680 51 55 57
-451.606560 666.401720 1003.662205 122 131 139
-288.983035 759.552526 1400.296402 25 28 33
-131.871080 70.072544 2042.480278 130 144 143
-285.495353 597.728300 1454.757690 31 35 36
-268.679619 578.693151 1503.961754 85 90 91
-125.223708 15.822093 2062.867546 106 122 119
-125.223708 15.822093 2062.867546 106 122 119
-117.302239 94.948781 2030.062675 131 144 144
-277.392244 659.906483 1425.207996 89 94 93
-114.393973 31.537953 2040.720558 7 23 26
-205.481434 -872.833538 2103.534317 98 109 111
-419.966030 -931.849289 1570.329952 117 126 112
-273.958087 749.523926 1386.732006 87 91 91
-250.787997 557.361269 1500.645542 56 62 60
-280.914283 758.436251 1356.273174 25 30 33
-248.552942 483.272219 1528.584003 137 148 146
-98.644191 -712.950850 2299.035072 36 48 48
-134.307563 -51.987469 1987.820816 149 155 154
-278.034616 756.390142 1354.456615 12 14 18
-278.034616 756.390142 1354.456615 12 14 18
-109.893930 71.374583 1999.531364 149 161 160
-108.615458 17.505163 2018.890572 141 153 145
-247.784424 531.661129 1496.802807 73 82 79
-99.884957 -611.657715 2245.605087 111 119 108
-101.117527 -8.702549 2028.251839 88 110 113
-114.213240 -82.779706 2017.729568 154 159 158
-791.616583 -341.418934 405.930948 71 60 44
-173.264086 -854.933548 2104.876137 92 112 107
-86.456710 -613.456106 2235.524559 86 99 91
-236.672735 505.201530 1498.739243 93 102 102
-90.459985 16.688967 2019.110680 20 27 56
-90.038192 22.609259 2017.109680 21 30 62
-236.984563 596.285725 1467.169666 31 35 36
-75.688952 -656.588697 2274.147224 135 142 147
-264.713788 746.927071 1346.588039 114 122 125
195.274746 83.852077 2685.021973 160 168 164
195.274746 83.852077 2685.021973 160 168 164
-231.154299 586.383963 1466.030407 135 142 140
-65.777528 -659.934616 2265.289497 161 167 171
-245.357752 596.074057 1420.972824 53 59 58
-55.563617 -671.677494 2288.865471 37 44 51
-65.790111 -617.201662 2243.022156 117 132 135
-63.193780 -630.955887 2253.109360 136 151 154
-48.581031 -693.211746 2298.187828 107 117 115
-47.678950 -675.039196 2290.716362 114 122 122
-240.873241 703.341627 1379.246521 135 137 137
-240.873241 703.341627 1379.246521 135 137 137
-62.618411 40.030590 2015.632629 164 176 171
-69.342232 -137.126148 2041.213417 99 104 107
-44.272283 -645.235348 2261.068344 152 161 167
-42.463401 -659.575224 2267.630959 139 145 150
-40.409067 -641.755867 2261.054039 57 66 77
-245.416570 767.701006 1323.467541 93 101 101
-228.812146 597.637749 1408.746338 73 79 79
-59.666789 -136.119699 2040.723228 102 107 108
-35.946482 -612.060785 2246.409416 164 179 179
-239.472842 765.540886 1324.222565 9 12 16
-205.743361 475.685358 1495.466900 111 117 116
-28.256956 -654.175806 2272.868729 163 169 168
-224.130583 701.430941 1378.903008 78 82 83
-796.428823 -384.592795 399.561930 225 239 236
-234.317565 747.662163 1332.662582 38 43 50
-21.342465 -599.703074 2248.381424 152 166 169
-27.002826 86.365354 2015.438843 139 150 151
-194.539726 572.030640 1465.251064 111 117 116
-191.625416 595.027781 1459.650230 129 135 135
-188.018107 495.110416 1496.731949 176 185 182
-206.090617 587.976027 1425.726604 148 153 151
-190.607333 462.622881 1500.454044 44 50 49
-223.077726 753.362465 1331.135750 97 105 108
-220.746899 748.133135 1334.026814 46 52 59
853.549957 187.614906 3969.555283 143 152 157
-5.668022 -641.842604 2261.911392 158 166 169
-15.107125 216.162896 1969.063187 167 172 167
-405.635118 652.638578 937.973022 4 7 11
-13.558389 -693.726683 2256.553841 51 48 63
-218.421578 766.299534 1328.300476 68 74 77
-300.830078 717.397451 1154.758930 89 98 103
-208.600569 749.575853 1354.942417 96 102 108
-16.329005 -689.609337 2245.801163 51 48 63
-201.397157 744.953060 1365.510178 116 119 118
-175.968122 496.775579 1499.212265 171 182 180
-8.075005 523.999214 1865.731812 86 121 127
-6.977108 480.328846 1881.761169 90 111 119
-2.743327 9.357673 2038.857651 139 154 152
-210.893178 746.138620 1336.828136 143 150 153
-172.737348 498.977566 1499.875927 176 186 184
-6.470681 504.189301 1872.897148 76 123 138
-6.470681 504.189301 1872.897148 76 123 138
-194.665468 602.655029 1413.007736 79 84 84
-400.528860 651.583242 933.080482 3 5 9
-21.736157 -63.216376 2009.415245 102 108 107
-171.455395 469.980288 1504.044247 143 149 145
14.105052 -641.959906 2266.954041 176 183 178
-203.936267 748.157406 1340.555573 155 162 163
-200.445390 748.700237 1347.121620 41 47 52
-204.717183 749.491310 1336.906052 15 21 26
-63.481736 -829.336166 2147.009277 105 121 117
-203.147697 759.972095 1332.591343 109 117 117
-186.360550 754.241705 1368.245029 9 11 16
-186.360550 754.241705 1368.245029 9 11 16
-199.298608 780.889845 1328.276062 33 39 44
-164.671278 596.204424 1462.357140 121 126 127
328.200984 91.877562 2715.754128 20 27 48
-337.862611 -328.189850 1414.776516 29 40 51
-198.697412 775.807810 1328.036118 34 40 45
-157.937574 481.209230 1508.166790 157 168 165
-181.790507 656.231451 1399.002457 106 111 110
-181.790507 656.231451 1399.002457 106 111 110
2.818493 -61.261863 2031.365967 134 139 138
11.706273 558.478498 1857.247734 59 65 64
913.996792 210.400915 3963.808441 154 165 164
-158.887005 533.676958 1486.097908 91 96 94
-392.964292 649.936867 931.062794 102 110 116
34.379461 -686.600971 2293.565369 32 31 41
-195.285380 779.596615 1328.298855 90 96 101
14.255388 427.470207 1901.943588 173 177 171
14.255388 427.470207 1901.943588 173 177 171
12.225387 459.911585 1886.839867 56 104 114
-181.164193 747.431326 1368.753719 86 92 91
42.604673 -683.692312 2307.939148 124 138 129
764.896441 1010.050869 3368.313980 88 118 125
4.725270 -116.519690 2046.420670 45 47 47
15.926637 482.736492 1883.001328 71 115 130
15.926637 482.736492 1883.001328 71 115 130
20.186371 473.402166 1891.342926 173 177 169
41.229048 -660.497189 2284.023666 115 95 74
23.063508 415.591145 1908.290863 167 179 178
23.702055 419.091129 1908.217812 158 171 171
23.702055 419.091129 1908.217812 158 171 171
26.418558 397.091770 1918.606377 70 110 119
32.212308 11.894637 2047.214890 133 148 146
30.626130 46.578041 2032.656860 171 183 175
26.055464 505.806255 1876.483154 152 173 179
35.228208 199.501741 1990.612793 93 141 151
29.549631 351.782584 1931.022644 89 123 136
-147.709167 555.991745 1479.020119 76 79 77
33.018646 228.023458 1974.925232 81 128 139
33.626288 257.925439 1966.445160 103 141 147
33.626288 257.925439 1966.445160 103 141 147
28.681576 527.478886 1871.412086 70 100 110
-167.252684 589.787912 1423.774815 147 151 151
-164.708912 589.050007 1425.546455 134 135 135
381.927991 -1087.692738 3134.226608 108 127 121
-165.351796 710.237122 1384.028149 46 54 54
34.433705 414.175510 1909.664154 89 116 128
838.692093 -136.180103 3822.364426 128 135 138
-165.550828 656.763411 1398.717403 103 109 108
36.672384 395.900631 1918.092346 167 177 177
-161.818910 593.461943 1422.868252 39 43 48
39.388070 418.378544 1910.472488 82 128 138
-161.676347 708.031559 1385.726738 123 130 130
40.087745 478.002596 1890.463638 168 179 178
49.922055 48.998460 2037.397957 176 186 176
45.645949 404.891157 1916.888809 164 171 166
-157.585609 747.773361 1372.893047 55 61 62
-170.202339 750.088692 1344.899845 140 147 153
-157.318020 750.909328 1371.094513 90 95 96
-170.155239 774.205112 1332.442570 14 13 17
-170.155239 774.205112 1332.442570 14 13 17
-169.182742 769.119120 1334.316158 72 79 81
51.940805 454.106140 1903.273773 167 174 168
984.167671 203.944612 3970.116425 18 30 52
-153.297687 754.149914 1367.591000 15 18 23
81.776720 -695.145082 2307.514191 116 133 121
-163.129508 792.508125 1329.509068 101 108 111
60.540861 322.188234 1949.058533 101 124 130
64.682722 37.729713 2043.990898 166 178 173
-123.498762 575.319529 1477.140808 95 101 100
-143.416917 612.884188 1421.546841 65 71 72
-148.626792 749.270487 1368.487549 99 102 106
64.598507 271.389818 1966.743279 78 114 122
66.265726 305.962610 1956.146049 97 139 150
131.327915 -972.756863 2484.352684 252 218 194
64.563960 444.465017 1909.201622 72 110 122
67.321062 287.702847 1962.264252 109 138 143
67.321062 287.702847 1962.264252 109 138 143
595.864582 535.145855 2991.131783 168 181 181
66.716349 357.002449 1938.586617 85 134 145
68.862259 151.737940 2003.883743 37 43 42
62.213665 419.411802 1907.572174 77 119 129
62.213665 419.411802 1907.572174 77 119 129
65.284234 466.828012 1897.712326 155 172 175
65.284234 466.828012 1897.712326 155 172 175
-150.906897 753.673458 1353.487110 81 87 90
-150.906897 753.673458 1353.487110 81 87 90
72.132200 157.700765 2002.973175 80 86 85
-137.909770 592.336226 1427.848530 139 141 141
-137.095010 595.198965 1426.288509 55 58 62
78.611332 13.789715 2054.614067 139 151 151
76.765525 46.365684 2040.004349 108 118 130
69.908088 489.187670 1888.869858 73 109 121
69.908088 489.187670 1888.869858 73 109 121
58.382922 -167.736602 2060.575676 120 125 124
76.569784 456.138134 1908.049774 171 173 167
-112.428212 603.136873 1462.854576 145 146 145
-146.794021 780.002642 1336.511230 7 9 14
-109.577847 601.400471 1466.085052 73 74 78
64.325607 -146.798384 2054.455757 51 59 74
66.228265 -167.227292 2059.760857 130 134 133
83.848679 444.326639 1908.622742 68 108 117
83.492732 491.689873 1893.358803 72 107 115
85.336578 437.756252 1911.724091 174 180 176
-100.007737 563.278103 1484.685421 157 163 160
85.711598 487.537050 1891.751671 92 131 141
91.136849 401.274109 1926.852417 62 107 119
-87.887102 488.089275 1524.808884 18 20 27
-87.887102 488.089275 1524.808884 18 20 27
-134.939432 766.043091 1343.970776 29 35 40
-132.538843 778.852367 1339.509201 102 110 116
107.501686 35.415101 2054.098129 26 35 66
104.848242 283.733201 1973.820686 120 152 161
-84.314203 515.867853 1515.262413 143 149 148
108.653474 30.246720 2055.230522 20 27 48
-112.956119 759.493065 1378.200245 14 18 20
27.552465 -854.581642 2148.916054 145 129 106
-110.166502 596.247101 1429.356861 57 62 63
-86.074835 574.754047 1482.182598 152 157 155
114.061952 426.350260 1925.486565 67 112 125
-103.878343 761.271238 1380.210114 36 39 43
-355.050969 643.396378 904.869938 112 122 129
132.110405 -274.883366 2161.104584 155 180 181
120.715034 404.050541 1932.235336 115 152 160
-351.433539 644.113302 908.606339 82 93 98
-177.670646 -706.423569 1659.185791 201 197 186
120.321500 459.073973 1909.924126 168 172 167
120.321500 459.073973 1909.924126 168 172 167
132.310855 23.366885 2059.939003 24 33 54
122.234535 510.772991 1892.035103 98 125 132
127.889574 445.970011 1919.858360 85 108 113
-73.715079 603.318167 1468.430328 89 91 92
-68.791628 518.587589 1502.786922 139 145 144
134.796882 345.450020 1959.992599 166 173 168
-89.987779 690.094328 1407.090378 57 62 63
138.897038 262.466979 1990.940475 99 138 149
143.651032 -169.766486 2128.693962 72 112 124
143.651032 -169.766486 2128.693962 72 112 124
144.833124 -240.282464 2149.682236 149 181 186
136.299622 334.788680 1960.313606 105 139 145
129.206777 537.002611 1884.935951 171 176 175
137.974012 427.894545 1928.314590 66 107 118
137.974012 427.894545 1928.314590 66 107 118
131.796885 480.514288 1899.736214 177 180 171
133.775640 437.417841 1915.423012 172 175 170
148.069060 29.760817 2063.976860 136 149 147
-56.357175 488.692951 1519.727421 24 27 41
-85.117549 755.211210 1382.759285 81 87 89
-55.092597 481.190062 1523.392487 118 121 122
150.092351 -236.618996 2141.458511 130 174 177
150.092351 -236.618996 2141.458511 130 174 177
-98.047626 757.297802 1354.327011 14 16 23
153.227186 24.512406 2067.918587 26 32 56
-52.847016 462.242794 1528.702259 114 117 119
-54.502845 472.745275 1518.999863 34 39 40
-94.531697 788.251829 1343.751717 63 69 74
160.306668 19.930062 2072.064018 136 148 142
158.580017 43.842167 2060.734749 160 171 171
-54.281622 604.044056 1474.559498 148 156 156
150.584984 451.170349 1921.776772 67 106 119
147.453249 538.270903 1887.262726 173 181 177
-91.927904 781.946611 1343.765831 4 4 6
147.534394 526.788616 1887.115860 171 175 170
154.453361 484.739542 1910.318565 176 179 172
154.453361 484.739542 1910.318565 176 179 172
-238.522482 699.320173 1077.096558 158 167 176
90.458620 -815.034866 2162.140465 48 55 62
-48.691678 605.848694 1470.523167 96 102 105
158.936322 496.119881 1904.640388 66 99 110
-66.968220 762.265825 1382.840252 9 10 13
167.340910 434.336042 1931.484032 94 120 131
164.558256 496.207952 1905.971718 167 180 181
97.036958 -815.962887 2161.215401 110 120 122
169.969702 410.747004 1941.463470 66 103 114
176.208103 221.102309 2008.713913 97 133 139
178.609014 240.485620 2006.355476 109 138 145
-59.790450 644.239187 1424.866009 104 109 109
100.768435 -814.077854 2162.551880 106 124 118
-58.163017 713.185883 1406.078625 45 48 48
180.856812 237.069726 2005.080986 92 127 139
-322.768235 645.775175 913.266373 178 189 193
170.439339 516.363668 1899.234581 84 108 114
184.376109 46.086210 2063.372040 170 177 174
183.993459 270.232153 1995.872688 96 111 116
-33.303672 577.451706 1486.254692 146 154 153
386.844277 -1002.443218 2754.421997 147 143 138
-302.724981 -60.236144 1153.942680 20 27 56
-54.338652 716.206837 1400.836945 106 112 111
177.059138 527.119827 1891.351318 171 176 170
180.129182 541.142702 1892.333984 69 109 123
182.512617 497.821379 1909.170532 77 108 117
182.512617 497.821379 1909.170532 77 108 117
-25.124234 597.146559 1483.324718 126 132 134
180.799031 508.058071 1901.289177 172 177 171
180.799031 508.058071 1901.289177 172 177 171
-332.626939 647.658443 881.170082 64 67 66
-74.381596 776.776314 1332.410431 9 8 8
189.798331 476.490307 1919.727135 99 125 129
191.505766 -61.072487 2069.088364 170 175 173
1027.741909 -1362.005997 4033.374023 155 154 149
190.227675 -82.431102 2071.078491 58 64 58
212.964749 28.440663 2080.247116 34 40 62
-117.401981 751.778984 1245.932579 46 52 57
210.825562 53.575444 2067.668533 30 39 65
-328.194904 644.714594 878.079128 77 84 84
208.057070 193.061924 2020.006371 94 123 132
210.962534 214.956951 2017.716789 115 150 159
207.699108 338.365054 1972.287178 86 135 144
208.018470 292.450309 1985.967255 105 142 149
213.632703 241.252017 2008.821297 60 107 120
228.657246 42.389286 2095.731354 163 171 169
209.029388 -130.889213 2104.353333 30 37 53
217.884779 50.798023 2067.710686 163 171 169
217.884779 50.798023 2067.710686 163 171 169
239.579010 -665.410995 2313.601303 114 131 127
206.515265 510.426188 1907.966423 173 178 173
208.535910 539.303875 1897.193718 105 117 119
-46.806231 769.503403 1352.136803 129 132 128
212.531471 498.951817 1912.774658 93 121 129
214.869857 627.100801 1872.648239 104 106 106
344.218016 -965.308762 2568.643570 144 142 128
222.521019 599.133635 1885.049248 118 124 122
266.349101 -686.477375 2337.133026 36 36 42
-26.034701 594.454479 1421.859741 8 9 17
246.596289 30.104244 2082.163239 18 30 52
232.702661 483.143520 1924.858284 77 104 113
235.817289 436.826181 1942.470360 53 103 121
236.359334 574.057007 1893.805313 171 174 173
236.080194 600.118876 1883.902550 113 118 117
241.198730 482.994318 1925.429535 64 97 108
273.674273 -568.353271 2284.181595 44 59 65
-38.196465 607.155657 1377.259636 60 67 62
262.878537 187.584460 2040.011024 34 42 42
-251.410723 229.515338 1095.666313 163 166 164
277.811432 -626.075935 2298.628426 45 50 64
-34.763455 601.142740 1379.874611 235 240 238
248.391056 468.094969 1931.033707 168 170 170
-307.648802 637.624788 874.133301 144 152 159
249.438524 718.551970 1859.134102 99 105 104
240.263367 -136.078727 2084.001732 55 64 84
285.868454 -635.463953 2304.741096 154 161 154
285.868454 -635.463953 2304.741096 154 161 154
282.168293 -633.293152 2294.774055 154 161 154
249.691749 603.328133 1880.087662 127 129 129
292.531514 -632.712936 2305.679321 154 162 155
249.627757 -126.984560 2080.443764 175 183 183
249.627757 -126.984560 2080.443764 175 183 183
-15.366846 591.501760 1398.415470 20 19 21
283.697462 32.814747 2085.756683 32 36 64
412.185574 -941.248131 2580.980110 49 45 50
294.983077 47.853544 2086.079025 31 42 69
-313.360763 -425.064993 1139.515591 139 145 150
-313.360763 -425.064993 1139.515591 139 145 150
300.779343 53.359753 2085.395050 157 170 170
301.728678 38.340393 2090.442085 148 160 158
316.845465 -656.630802 2313.576317 31 29 29
280.622864 -52.638918 2077.129364 162 167 166
58.684838 -9.420677 1669.705009 34 40 62
306.610036 33.448127 2093.160248 29 35 61
-51.033193 758.581018 1256.625843 21 24 24
319.107580 -683.598518 2310.376549 93 99 98
428.389788 -945.298481 2570.863533 181 177 172
333.572054 -519.233274 2262.977791 150 159 160
325.068402 54.780370 2085.178947 156 167 169
322.084069 -692.616367 2289.727783 78 80 80
349.326921 -599.484444 2299.609184 160 168 168
351.818871 -633.931828 2311.597824 127 138 144
86.536008 -8.031244 1672.454834 18 30 52
-286.745834 632.262897 848.883533 20 23 29
34.235212 735.998344 1387.475967 8 11 13
377.225375 -567.911768 2309.502983 135 150 152
353.869462 62.518024 2092.802811 26 36 59
355.623269 26.558182 2102.147865 20 28 43
-282.761478 632.931185 847.535515 17 18 23
-281.684256 639.464045 845.886040 81 88 89
80.018860 617.452478 1464.501286 20 20 24
360.798907 66.893798 2090.465355 165 174 173
360.725951 62.478495 2090.712357 147 160 159
347.388172 737.596941 1878.291512 43 44 54
272.468185 -808.350945 2181.031799 103 114 118
-723.844337 -154.154301 261.173916 24 55 40
-279.311728 632.273102 845.473862 15 16 22
367.253971 27.217460 2102.462769 19 27 44
373.898745 21.620472 2110.303116 100 119 124
-228.418708 657.662678 919.398499 38 46 53
421.476460 -434.160137 2306.228828 27 29 39
287.150002 -818.131351 2186.180687 47 41 46
-269.980121 630.803251 848.128414 120 129 137
373.000908 -117.789412 2120.732880 99 102 104
460.617352 765.546370 2009.184647 159 172 186
602.937365 -385.565639 2557.690811 198 184 162
731.419611 872.282887 2419.827843 51 56 65
731.408024 877.413845 2411.480522 149 153 158
519.378948 -951.074982 2565.386581 185 159 146
105.004871 751.902580 1414.844131 90 100 107
735.304785 848.992634 2414.939308 151 154 159
743.654776 788.914633 2444.146156 160 168 177
470.592880 -459.678888 2338.117027 82 103 103
-74.691135 718.337631 1118.920040 109 116 120
826.714039 -1108.833885 3076.975060 161 125 107
-299.711156 613.022280 773.324585 120 188 181
-8.500832 624.073076 1238.878822 19 17 17
503.796911 -464.315891 2364.750481 12 24 24
511.243248 -476.698351 2373.901176 21 33 35
743.814039 856.426811 2381.586456 167 170 175
453.687477 -568.144274 2300.691795 43 38 43
667.052317 -784.705496 2689.341164 78 65 66
342.294478 -824.672127 2184.948540 176 166 159
462.504053 -527.258778 2283.332062 86 102 111
-0.911308 647.817850 1219.669914 51 57 57
742.866659 724.104691 2374.685287 176 179 185
419.951868 537.845516 1912.589264 196 204 202
371.438599 -801.396847 2200.052261 35 44 50
362.404466 -842.902374 2193.248367 185 159 146
488.392878 -539.794493 2303.667259 24 24 36
-235.550117 630.637836 841.770840 13 24 29
94.922489 664.832544 1351.241112 121 132 139
-36.251804 720.437050 1121.374226 8 10 11
-4.345035 652.352524 1187.108135 245 250 249
750.588560 700.159931 2346.295929 105 110 117
-3.293891 658.914137 1181.733322 184 191 188
-30.467770 720.245028 1121.428204 10 9 11
1853.262329 1202.225494 3912.877655 13 18 16
-250.771475 643.399668 799.665928 13 15 15
481.333923 -791.605520 2360.266304 251 207 176
419.140100 -801.711082 2205.506516 84 104 101
195.928776 403.314877 1533.212090 152 162 166
232.469392 637.098837 1520.582104 92 103 112
674.626493 -608.593225 2658.987999 198 184 162
552.699661 -505.227566 2283.459282 85 108 107
550.390768 -504.341459 2278.689766 85 108 107
2.031047 685.148954 1135.638332 5 5 7
551.282501 -510.430336 2279.155922 23 27 38
556.806087 -502.549267 2281.746483 83 105 103
451.458216 -808.743477 2196.799660 88 100 104
121.706080 657.899904 1308.177662 17 22 29
263.494158 634.142113 1518.180752 70 78 90
533.516169 -575.850868 2352.674103 198 184 162
-743.166780 31.545252 176.789713 189 207 209
340.609860 654.075193 1583.239079 140 137 146
341.157937 632.809973 1581.105614 112 115 121
621.661329 -529.999971 2272.424889 132 134 131
345.274591 603.226900 1574.797821 141 148 151
345.274591 603.226900 1574.797821 141 148 151
61.793679 690.809298 1145.001888 2 2 6
352.708006 470.669222 1614.459801 67 73 79
345.583129 603.227472 1568.447018 95 102 105
342.707372 646.245003 1545.293140 7 5 11
61.721444 729.198217 1120.204258 42 49 57
657.034874 -484.827471 2274.438667 131 138 131
356.154585 521.739864 1581.869888 90 95 98
356.154585 521.739864 1581.869888 90 95 98
232.021856 678.268719 1364.814186 103 114 125
-630.858612 148.209894 289.762855 91 106 112
359.125757 646.093178 1539.849567 12 15 23
359.125757 646.093178 1539.849567 12 15 23
670.576143 -490.763140 2269.241333 127 132 129
674.560642 -499.534082 2272.332954 47 47 63
344.372034 659.480619 1508.356190 31 35 35
347.364140 -763.658762 1884.606361 46 35 27
204.661775 697.858381 1299.989986 121 131 138
693.734932 -507.774591 2276.193619 244 233 216
390.924168 638.149500 1555.638885 142 147 148
397.550464 512.166500 1592.887402 35 39 46
243.555832 692.299747 1329.250145 60 62 63
366.091394 666.500330 1500.768185 125 128 126
408.537722 644.418621 1557.694054 142 147 149
120.460272 735.916853 1135.843563 145 152 156
265.683460 675.748014 1343.532372 155 168 175
369.004440 640.872574 1489.229584 160 165 163
620.041609 -829.948711 2204.257011 136 137 133
622.207355 -919.877720 2221.616936 147 106 85
369.709182 671.301651 1470.775223 6 7 10
626.922321 -811.300087 2191.368484 85 86 82
373.255229 664.041567 1467.095280 157 162 158
-670.354652 -223.209381 250.900936 251 246 236
-232.163143 590.438128 678.148127 3 6 5
655.442476 -907.336330 2212.633133 114 89 72
511.557627 547.340202 1624.819565 49 56 64
381.791997 687.371588 1421.560287 124 128 129
510.171986 619.626427 1596.408081 85 87 88
178.669786 743.422318 1140.547371 40 47 55
514.140558 619.954443 1594.867897 152 156 155
183.062315 741.479588 1139.015579 127 139 143
-228.880548 578.875113 654.643726 13 15 17
526.373100 622.787714 1599.598122 138 143 143
285.631490 701.213980 1268.801880 9 5 9
539.840841 542.802095 1626.237488 47 48 50
539.755058 633.938217 1598.197937 84 88 89
541.236734 571.464872 1614.142799 99 103 104
541.236734 571.464872 1614.142799 99 103 104
548.410988 524.337959 1624.922562 145 150 150
377.306747 689.107609 1361.347675 12 14 18
100.809824 483.718443 1029.672241 6 7 10
83.260351 468.897867 1001.282501 6 7 10
271.137285 752.805138 1151.866245 68 77 89
-706.271553 -146.938014 206.498337 45 103 90
-593.938398 -278.645754 238.581038 88 123 125
-744.151878 -185.981226 58.697850 155 125 95
-480.263853 -98.563892 -506.447458 254 250 246
-421.036482 -296.253967 -608.413458 177 184 185
-475.989914 -128.147805 -417.947674 36 58 59
-508.334589 -275.966883 -579.562044 17 23 31
-1361.346531 1262.722588 3122.443962 113 205 178
-1311.226368 1323.236179 3258.403778 35 50 52
-1283.506775 1180.766392 3263.361359 15 14 16
-1278.789043 1140.557480 3253.542709 89 95 94
-1281.836987 1215.404892 3266.927719 7 7 9
-1277.300167 1153.551960 3273.745346 20 24 23
-1271.778965 1269.220734 3255.394745 27 32 31
-1272.919846 1238.832283 3278.029633 23 25 26
-1263.706875 1008.423710 3304.887009 166 161 163
-1251.800537 1292.373466 3260.866165 33 34 36
-1247.490883 1076.953793 3268.565369 152 150 152
-1253.686142 1211.888885 3290.209198 112 111 113
-1254.300499 1187.074375 3310.377502 10 7 11
-1250.533295 1197.070122 3300.547028 56 55 57
-1255.655670 988.142204 3364.014435 212 200 200
-1246.605587 1220.052433 3296.881485 29 29 31
-1250.103092 999.276447 3359.371185 187 176 178
-1238.730335 1306.095982 3253.310013 94 99 100
-1242.703342 1286.883068 3281.028366 99 102 103
-1238.382912 1078.069973 3313.570023 40 36 39
-1238.649654 1162.823296 3320.322037 19 16 18
-1234.321213 1045.300484 3351.200485 36 32 36
-1224.834251 1093.845081 3309.450912 18 15 17
-1219.497776 1003.815079 3339.691925 91 83 84
-798.517895 -284.000039 1490.370655 243 224 215
-1224.391556 1033.879375 3369.034195 20 15 18
-1220.658779 1056.162357 3364.632034 73 66 63
-1220.658779 1056.162357 3364.632034 73 66 63
-1221.407223 1014.339828 3386.826324 214 208 209
-1210.644245 1086.540699 3335.304642 210 206 207
-1213.330841 1244.503021 3349.268341 135 135 141
-1209.813881 1230.408669 3338.521957 37 40 45
-1209.813881 1230.408669 3338.521957 37 40 45
-1202.264214 1162.725353 3308.879471 194 188 191
-1205.096626 1254.753399 3316.293716 140 145 150
-1204.342842 1253.774738 3313.556671 140 145 150
-1210.444450 1037.575722 3383.364105 13 5 8
-1198.530006 1346.210480 3310.019684 120 180 172
-1203.082752 1164.612865 3375.099182 21 23 26
-1199.053478 1232.510281 3363.889694 151 149 148
-1196.876431 1070.001221 3402.141953 152 144 144
-1195.634556 1057.205105 3402.957153 19 10 16
-1191.207409 1120.531082 3390.148926 144 137 140
-1187.382889 1071.957302 3412.091827 28 16 20
-1177.099800 1156.851387 3415.858841 21 19 19
-947.447777 -494.614077 2134.774208 85 110 98
-551.800537 -103.684330 -551.876879 245 233 226
-940.573978 -495.288801 2119.898605 231 217 205
-941.141510 -489.250422 2126.666641 111 127 115
-1155.895424 1122.320175 3429.941177 189 180 182
-1154.256153 1231.241512 3439.915085 106 111 111
-1146.484661 1191.100502 3442.862701 51 58 57
-1138.163280 1150.196075 3423.192978 128 127 129
-1129.512978 1151.140881 3428.651428 48 51 54
-881.162739 849.699497 1799.513245 180 184 185
-871.736526 842.252254 1798.219872 178 183 177
-861.332321 881.103325 1768.976784 15 16 18
-851.069546 880.156898 1769.169426 29 30 34
-835.732841 880.106831 1796.490097 182 183 176
-774.140072 -591.213465 1848.097992 201 209 206
-779.344654 898.079205 1801.563454 16 16 20
-975.721073 -472.517014 5376.860046 234 223 214
-746.391582 885.774326 1806.327248 146 149 143
-734.558439 887.025642 1803.589249 140 143 140
-682.195854 -703.303337 1753.240204 209 204 195
-682.166195 800.822258 2150.210762 155 155 155
-709.437466 -366.857529 5528.050232 225 208 204
-639.091825 855.522251 1628.443336 17 18 23
-631.598186 855.896282 1622.713852 82 88 95
-671.649265 -325.329161 5529.532242 130 147 138
-662.860441 -346.749473 5493.014145 249 237 229
-641.090345 -315.731263 5492.898560 152 175 164
-633.991909 -326.905799 5482.203674 246 238 231
-624.060059 -311.876512 5502.986145 163 166 160
-618.687868 -262.609076 5487.984085 248 234 221
-610.231256 837.799931 1609.538651 33 37 45
-605.650568 -293.242669 5449.945450 249 234 226
-481.650019 -204.657722 -152.970552 105 116 124
-601.734543 817.582607 1649.991608 105 110 109
-569.277954 -226.314640 5527.960587 246 228 214
-593.816996 777.787352 1656.108856 68 72 73
-600.138807 -642.504930 1883.793259 247 218 207
-545.099878 -194.898224 5495.118713 148 147 135
-536.839771 -256.330156 5501.036453 93 119 108
-594.751644 -696.547127 1773.146248 163 170 158
-583.082151 792.603683 1642.076302 56 60 60
-516.702938 -199.447608 5482.381821 199 183 170
-588.934946 -698.978233 1766.100693 126 133 121
-573.853874 831.780434 1584.207916 23 26 30
-569.000530 655.184746 1682.076645 55 59 64
-564.248133 667.400837 1737.352943 87 90 94
-562.448025 629.743767 1747.824097 102 106 106
-564.432335 825.327682 1577.697754 93 101 105
-559.130526 606.488848 1755.810547 105 107 107
-462.953281 -146.544456 5504.945374 246 228 220
-553.559256 668.133307 1735.427284 96 100 104
-432.407856 -20.796104 5665.066528 105 134 129
-546.622324 551.942396 1774.353027 149 170 166
-547.977161 807.022762 1609.381294 99 102 106
-536.198187 547.879887 1765.381622 143 166 161
-394.172621 9.555590 5472.710800 241 225 213
-536.719561 806.031990 1562.612057 27 30 37
-529.020977 764.221716 1615.753174 75 75 79
-362.135458 46.527603 5332.861328 239 224 211
-432.605076 1147.386169 3409.008408 112 120 116
-346.610045 132.537901 5499.836731 245 226 210
-518.473005 629.147387 1714.621162 177 182 183
-517.142916 806.161022 1582.326031 41 41 47
-503.108549 621.669245 1709.766388 161 167 166
-504.361916 803.661919 1562.731171 118 122 125
-498.115015 613.838053 1712.871552 89 94 93
-499.964190 756.967545 1583.172035 120 122 123
-501.071215 802.880192 1534.403610 76 79 84
-490.650558 610.264826 1702.382469 99 103 102
-489.767027 642.678452 1625.856590 76 79 83
-492.648697 812.992477 1520.104980 92 104 106
-481.551123 611.263418 1692.411041 157 163 162
-470.085192 573.713207 1844.643402 98 107 105
-478.317547 608.959484 1695.411301 97 101 100
-483.483362 752.270126 1573.888588 65 67 68
-482.493544 795.611429 1517.288685 38 42 47
-419.590044 -414.178038 2666.776657 241 228 220
-478.522825 790.734148 1523.456097 87 94 98
-474.827862 651.253462 1606.718445 108 113 113
-466.813755 623.048258 1674.201012 119 124 125
-464.828539 618.903875 1673.130798 182 187 186
-467.267799 750.415039 1558.494473 130 134 135
-456.702375 619.629478 1665.559769 110 116 118
-460.861635 797.435570 1500.053978 89 96 100
-450.662327 616.658592 1662.971878 168 173 174
-450.461245 745.534563 1550.843143 68 72 73
-380.620217 -400.204325 2611.723518 46 50 71
-448.496628 631.514025 1589.167690 84 83 85
-342.834926 822.700596 2704.296112 160 167 174
-438.990927 603.344679 1660.307884 149 154 153
-339.849782 894.991398 2676.585388 61 65 74
-339.514017 828.750896 2701.156807 22 27 40
-336.999345 816.775703 2703.981590 35 37 55
-336.999345 816.775703 2703.981590 35 37 55
-447.232437 806.536102 1485.887623 90 98 105
-446.130276 795.381451 1487.240696 97 108 112
-444.097900 810.187244 1479.559708 76 85 90
-517.273617 113.977635 884.024811 74 173 167
-604.938269 -232.665634 -444.921970 159 160 168
-430.010033 559.664345 1666.297531 50 57 60
-429.225111 602.143002 1653.186417 150 156 156
-436.683035 795.051479 1481.042862 92 99 108
-433.319235 796.876383 1481.767654 80 88 95
-427.009630 629.580593 1572.843933 72 73 77
-431.754065 784.060574 1479.144001 41 46 55
-621.410751 -63.469273 -594.118643 245 228 218
-386.750960 -455.843878 2418.624687 186 157 143
-399.231648 568.179893 1631.620979 158 164 160
-399.231648 568.179893 1631.620979 158 164 160
-407.118988 737.208176 1510.312557 143 147 146
-407.501602 787.664604 1458.508110 98 107 111
-387.489867 485.183525 1646.286583 91 96 97
-402.221632 795.082569 1451.508236 113 120 125
-395.587897 779.051590 1485.864735 62 65 70
-397.327566 788.099051 1449.097443 43 50 59
-382.155967 501.244688 1637.753677 152 155 153
-391.138172 778.703594 1464.790535 132 138 141
-385.269070 619.676590 1539.451885 60 63 67
-371.380353 477.082539 1657.236671 114 103 96
-372.523999 598.963499 1603.749657 115 120 120
-369.101286 517.546749 1642.277527 141 105 48
